-99999 -99999 -99999 -99999 -99999 -99999 -99999 -99999 -99999 -99999 -99999 -99999 -99999 -99999 -99999 -99999 -99999 -99999 -99999 -99999 -99999 -99999 -99999 -99999 -99999 -99999 -99999 -99999 -99999 -99999 -99999 -99999 -99999 -99999 -99999 -99999 -99999 -99999 -99999 -99999 -99999 -99999 1989.1575927734375 1948.4390869140625 1983.2120361328125 1973.303466796875 1972.65087890625 1967.66650390625 1963.0535888671875 1958.8778076171875 1955.2366943359375 1952.2554931640625 1946.592041015625 1937.8546142578125 1929.9859619140625 1921.84765625 1913.750732421875 1906.9755859375 1898.5648193359375 1884.404296875 1873.474853515625 1864.60791015625 1854.80078125 1850.5296630859375 1853.2301025390625 1864.574951171875 1891.7698974609375 1904.9503173828125 1907.5228271484375 1913.302490234375 1922.4443359375 1935.9444580078125 1948 1948 1963.0430908203125 1975.118408203125 1980.979248046875 1985.6060791015625 1985.7437744140625 1995.1578369140625 2004.154541015625 2012.52392578125 2020.9346923828125 2029.52490234375 2035.0369873046875 2035.9022216796875 2036 2059.2138671875 2065.109619140625 2065.049560546875 2068.40771484375 2075.51025390625 2088.020263671875 2096.4443359375 2099.54736328125 2105.303466796875 2112.3876953125 2117.03369140625 2117.830810546875 2118 2131.4404296875 2141.03466796875 2141.0791015625 2141.01416015625 2142.327880859375 2144.423095703125 2147.490966796875 2152.240966796875 2159.68310546875 2168.68701171875 2168.9375 2169.387939453125 2172.691162109375 2189.43017578125 2194 2195.683837890625 2201.568603515625 2207.033935546875 2210 2210 2213.331298828125 2227.272216796875 2229.8798828125 2230.583740234375 2234.066162109375 2243.333251953125 2248 2248 2248.85107421875 2249.269287109375 2249.73828125 2250.435302734375 2250.548583984375 2248.051513671875 2246 2245.32568359375 2240.822509765625 2232.298828125 2226.779296875 2225.01171875 2222.575439453125 2213.451171875 2203.062255859375 2196.869140625 2193.46337890625 2189.69482421875 2185.888427734375 2183.1572265625 2183 2183.0185546875 2183.15087890625 2183.30517578125 2177.57763671875 -99999 -99999 -99999 -99999 -99999 -99999 -99999
-99999 -99999 -99999 -99999 -99999 -99999 -99999 -99999 -99999 -99999 -99999 -99999 -99999 -99999 -99999 -99999 -99999 -99999 -99999 -99999 -99999 -99999 -99999 -99999 -99999 -99999 -99999 -99999 -99999 -99999 -99999 -99999 -99999 -99999 -99999 -99999 -99999 -99999 -99999 -99999 -99999 -99999 1963.75439453125 1980.4080810546875 1984.0068359375 1983.58544921875 1978.1834716796875 1971.005859375 1965.54931640625 1963.525146484375 1960.2020263671875 1950.9437255859375 1941.232421875 1934.7349853515625 1927.2508544921875 1919.251953125 1910.2491455078125 1902.09765625 1894.5302734375 1884.6116943359375 1874.7506103515625 1865.691650390625 1858.9971923828125 1853.6041259765625 1860.3587646484375 1872.934814453125 1889.816650390625 1904.043701171875 1904.7108154296875 1906.2158203125 1914.5181884765625 1941.1907958984375 1948 1948 1965.8695068359375 1984.7586669921875 1984.360107421875 1983.8348388671875 1987.044189453125 1994.7418212890625 2003.2987060546875 2012.125244140625 2020.4375 2027.3973388671875 2032.8189697265625 2036.55712890625 2042.1904296875 2059.625244140625 2066 2066 2066 2067.274169921875 2087.06884765625 2096 2098.03125 2104.4775390625 2117.988525390625 2117.245361328125 2115.70947265625 2120.807861328125 2140.67236328125 2141.334716796875 2138.748779296875 2138.804443359375 2140.277099609375 2142.44677734375 2145.425537109375 2150.215087890625 2160.332763671875 2167.8916015625 2168.302978515625 2170.564697265625 2174.661376953125 2181.017578125 2191.220703125 2194 2196.225341796875 2205.69921875 2209.989501953125 2210 2210 2229.522705078125 2230.193359375 2232.124755859375 2236.16748046875 2242.07568359375 2247.90087890625 2247.60400390625 2248.824951171875 2250.913330078125 2250.998046875 2251 2250.6513671875 2248.7255859375 2246 2246 2244.98974609375 2229.6357421875 2224.388427734375 2225.298583984375 2224.615478515625 2218.690673828125 2199.73828125 2192.68310546875 2190.08837890625 2187.275634765625 2184.72265625 2183.11376953125 2183 2183 2183.049072265625 2189.264892578125 -99999 -99999 -99999 -99999 -99999 -99999 -99999 -99999
-99999 -99999 -99999 -99999 -99999 -99999 -99999 -99999 -99999 -99999 -99999 -99999 -99999 -99999 -99999 -99999 -99999 -99999 -99999 -99999 -99999 -99999 -99999 -99999 -99999 -99999 -99999 -99999 -99999 -99999 -99999 -99999 -99999 -99999 -99999 -99999 -99999 -99999 -99999 -99999 -99999 1977.9210205078125 1973.800537109375 1998.4107666015625 1995.39453125 1988.3433837890625 1973.848388671875 1968.239501953125 1967.5504150390625 1964.5364990234375 1955.3697509765625 1942 1939.3355712890625 1932.4560546875 1924.9642333984375 1917.4102783203125 1908.2144775390625 1900.4388427734375 1892.827392578125 1884.4583740234375 1875.015380859375 1865.2109375 1854.1341552734375 1854.5986328125 1861.857666015625 1873.510986328125 1887.99853515625 1902.19091796875 1903.8927001953125 1904.0279541015625 1904.9349365234375 1938.147216796875 1946.3062744140625 1944.4859619140625 1961.124267578125 1978.4400634765625 1981.51611328125 1981.4775390625 1986.1895751953125 1994.1468505859375 2002.62353515625 2011.666748046875 2019.7537841796875 2026.4210205078125 2032.430419921875 2038.644775390625 2045.9857177734375 2056.35498046875 2064.466796875 2065.785400390625 2065.334716796875 2065.883056640625 2077.76904296875 2090.40234375 2095.957275390625 2098.049072265625 2112.973876953125 2116.460205078125 2112.119140625 2116.21337890625 2135.742431640625 2138.431884765625 2135.5244140625 2135.908203125 2137.65478515625 2140.071533203125 2142.761474609375 2146.625 2158.55712890625 2163.51123046875 2166.21533203125 2169.12109375 2172.615234375 2177.04443359375 2182.50048828125 2192.345947265625 2194.396240234375 2205.148193359375 2207.787841796875 2201.662353515625 2213.640380859375 2225.04296875 2229.3759765625 2231.320068359375 2235.81689453125 2241.501220703125 2245.936767578125 2245.323486328125 2246.73291015625 2249.52685546875 2250.335205078125 2250.67236328125 2250.859375 2249.02197265625 2246.1484375 2245.65673828125 2232.153564453125 2215.209716796875 2213.7060546875 2224.256103515625 2217.282958984375 2218.439453125 2194.61474609375 2187.146728515625 2186.33544921875 2185.016845703125 2183.5 2183 2183 2183 2193.84423828125 -99999 -99999 -99999 -99999 -99999 -99999 -99999 -99999 -99999
-99999 -99999 -99999 -99999 -99999 -99999 -99999 -99999 -99999 -99999 -99999 -99999 -99999 -99999 -99999 -99999 -99999 -99999 -99999 -99999 -99999 -99999 -99999 -99999 -99999 -99999 -99999 -99999 -99999 -99999 -99999 -99999 -99999 -99999 -99999 -99999 -99999 -99999 -99999 -99999 1989.31103515625 1966.4874267578125 2010.4119873046875 2004.8946533203125 1996.6708984375 1987.8785400390625 1979.8641357421875 1973.2821044921875 1968.0750732421875 1963.3695068359375 1951.88818359375 1942.052490234375 1939.271240234375 1930.5538330078125 1922.343994140625 1915.0550537109375 1907.984619140625 1900.47705078125 1892.7637939453125 1884.48681640625 1875.2491455078125 1864.7818603515625 1853.0799560546875 1853.19873046875 1859.783447265625 1870.1446533203125 1885.143798828125 1902.79248046875 1903.1431884765625 1903 1911.0440673828125 1929.6231689453125 1940.24072265625 1940.050537109375 1957.1329345703125 1976.3603515625 1978.66748046875 1979.083984375 1984.002197265625 1993.4619140625 2002.148681640625 2011.3016357421875 2019.4515380859375 2026.1231689453125 2032.706787109375 2039.18310546875 2045.6712646484375 2053.583251953125 2060.955078125 2064.253173828125 2063.88671875 2064.3046875 2079.19189453125 2086.96484375 2091.612060546875 2098.13330078125 2108.04833984375 2113.121826171875 2109.80126953125 2107.0478515625 2118.59814453125 2129.348388671875 2131.03076171875 2132.12841796875 2134.822998046875 2138.0576171875 2141.138671875 2145.3916015625 2155.08349609375 2160.34375 2163.659423828125 2166.660400390625 2169.87548828125 2173.398193359375 2176.5087890625 2177.60546875 2188.679931640625 2193.087646484375 2194.221923828125 2193.18994140625 2202.223388671875 2219.54638671875 2222.2607421875 2226.48291015625 2232.03857421875 2241 2242.2412109375 2241.81591796875 2243.800048828125 2247.825927734375 2249.067138671875 2249.330078125 2248.2978515625 2239.541259765625 2228.250732421875 2229.573974609375 2220.018798828125 2201.41455078125 2195 2197.98876953125 2194.205078125 2190.3212890625 2187.541748046875 2185.895751953125 2185.234375 2184.82568359375 2184.580810546875 2184.485107421875 2185.041259765625 2191.257568359375 2154.107421875 -99999 -99999 -99999 -99999 -99999 -99999 -99999 -99999 -99999
-99999 -99999 -99999 -99999 -99999 -99999 -99999 -99999 -99999 -99999 -99999 -99999 -99999 -99999 -99999 -99999 -99999 -99999 -99999 -99999 -99999 -99999 -99999 -99999 -99999 -99999 -99999 -99999 -99999 -99999 -99999 -99999 -99999 -99999 -99999 -99999 -99999 -99999 -99999 -99999 1970.7630615234375 2004.137939453125 2007.248046875 2003.6376953125 1996.5792236328125 1989.0430908203125 1982.0552978515625 1975.9996337890625 1970.581787109375 1965.4876708984375 1952.6417236328125 1943.437255859375 1941.6900634765625 1930.7645263671875 1918.06103515625 1915.953369140625 1909.6768798828125 1902.039794921875 1894.034423828125 1885.7144775390625 1876.7713623046875 1866.5469970703125 1854.7852783203125 1851.7847900390625 1855.0362548828125 1861.85498046875 1875.2513427734375 1902.3134765625 1903 1903.5653076171875 1915.4210205078125 1930.42138671875 1938.7509765625 1940.4852294921875 1952.173828125 1969.1953125 1977 1977.0003662109375 1978.084228515625 1994.494873046875 2002.566162109375 2010.389892578125 2019.11279296875 2026.593994140625 2033.3385009765625 2038.8878173828125 2044.510986328125 2051.86572265625 2058.4599609375 2062.736328125 2063 2063 2086.973388671875 2087 2087.31005859375 2094.30517578125 2104.546875 2109.474853515625 2108.015625 2110.466064453125 2118.33447265625 2125.788330078125 2129 2129.2568359375 2133.19921875 2140.437744140625 2142 2143.67529296875 2152.302978515625 2157.924072265625 2161.143310546875 2163.9248046875 2166.934814453125 2170.160400390625 2172.7548828125 2175 2180.1103515625 2187.21484375 2190.138671875 2192.215576171875 2193.08837890625 2208.95947265625 2217.20166015625 2218 2218.234619140625 2235.322265625 2241 2241 2242.043212890625 2246.71630859375 2248.02587890625 2248.129638671875 2247.69140625 2236.125 2227 2224.589599609375 2214.55126953125 2201.753662109375 2195 2194.592529296875 2192.957275390625 2191.413330078125 2190.02587890625 2188.827392578125 2187.975341796875 2187.49560546875 2187.298828125 2187.565673828125 2189.25634765625 2159.847900390625 -99999 -99999 -99999 -99999 -99999 -99999 -99999 -99999 -99999 -99999
-99999 -99999 -99999 -99999 -99999 -99999 -99999 -99999 -99999 -99999 -99999 -99999 -99999 -99999 -99999 -99999 -99999 -99999 -99999 -99999 -99999 -99999 -99999 -99999 -99999 -99999 -99999 -99999 -99999 -99999 -99999 -99999 -99999 -99999 -99999 -99999 -99999 -99999 -99999 1982.1300048828125 1996.20068359375 2024.584228515625 2013.498779296875 2005.52490234375 1997.6878662109375 1990.1591796875 1983.2685546875 1977.2457275390625 1972.536865234375 1969.5374755859375 1963.4432373046875 1951.5379638671875 1943.188720703125 1940.1505126953125 1930.65673828125 1919.8077392578125 1912.1771240234375 1904.334228515625 1896.3416748046875 1888.2337646484375 1879.8416748046875 1870.4305419921875 1857.5777587890625 1852 1851.9957275390625 1852.6953125 1868.209716796875 1891.854736328125 1903 1903.8927001953125 1919.1212158203125 1937.358154296875 1940 1940 1941.13623046875 1963.4036865234375 1977 1977 1984.583251953125 1998.6207275390625 2004 2004.3800048828125 2018.4986572265625 2030.23828125 2034.6004638671875 2037.06787109375 2042.7694091796875 2050.346435546875 2057.08349609375 2062.5439453125 2063 2067.694091796875 2079.2265625 2087 2087.23291015625 2092.719482421875 2102.115966796875 2107.040771484375 2107 2109.7998046875 2117.33447265625 2124.24609375 2128.458984375 2131.124267578125 2139.979736328125 2140.640625 2140.753662109375 2141.601318359375 2149.48779296875 2156.554443359375 2158.575439453125 2160.948974609375 2164.105712890625 2167.882080078125 2172.182373046875 2175 2178.304443359375 2183.6083984375 2187.434814453125 2190.857666015625 2193.00244140625 2206.6455078125 2216.271728515625 2218 2219.06201171875 2237.13427734375 2241 2241 2241.89404296875 2246.947509765625 2247.162841796875 2247.156982421875 2246.89599609375 2229.350830078125 2227.897216796875 2224.69775390625 2214.64013671875 2198.206787109375 2194.49951171875 2193.997314453125 2193.34033203125 2192.658447265625 2191.908203125 2191.201904296875 2190.584228515625 2190.110595703125 2190.113037109375 2190.447021484375 2173.300048828125 -99999 -99999 -99999 -99999 -99999 -99999 -99999 -99999 -99999 -99999 -99999
-99999 -99999 -99999 -99999 -99999 -99999 -99999 -99999 -99999 -99999 -99999 -99999 -99999 -99999 -99999 -99999 -99999 -99999 -99999 -99999 -99999 -99999 -99999 -99999 -99999 -99999 -99999 -99999 -99999 -99999 -99999 -99999 -99999 -99999 -99999 -99999 -99999 -99999 1991.5081787109375 1988.4329833984375 2035.0596923828125 2025.7554931640625 2015.131103515625 2006.4053955078125 1998.298828125 1990.671630859375 1983.7384033203125 1977.6458740234375 1972.821044921875 1970.028564453125 1961.507568359375 1951.6636962890625 1942.9267578125 1941.7166748046875 1933.02734375 1922.443359375 1914.497314453125 1906.6915283203125 1898.9312744140625 1891.3602294921875 1883.94873046875 1876.20556640625 1861.65234375 1852 1853.4283447265625 1861.6300048828125 1878.596923828125 1894.61181640625 1903 1902.7615966796875 1915.2083740234375 1934.2432861328125 1939.12255859375 1940 1944.9449462890625 1959.638916015625 1971.4764404296875 1977.0826416015625 1990.480224609375 2003.2935791015625 2003.30908203125 2001.255859375 2012.9857177734375 2026.8712158203125 2031.888671875 2033.82373046875 2038.25244140625 2048.577880859375 2058.618408203125 2059.788330078125 2056.75 2062.56884765625 2073.323486328125 2082.53564453125 2086.663818359375 2089.79052734375 2098.50341796875 2107 2106.328857421875 2107.1572265625 2116.423095703125 2124.52294921875 2128.799072265625 2129.003173828125 2135.7802734375 2137.09619140625 2138.0751953125 2141.001708984375 2146.362060546875 2152.62109375 2155.427001953125 2157.45751953125 2161.26318359375 2167.036376953125 2174.819580078125 2174.79736328125 2176.285400390625 2180.29150390625 2186.072998046875 2190.30419921875 2195.364990234375 2211.724609375 2217.395263671875 2218.046142578125 2222.72802734375 2230.11083984375 2236.240966796875 2239.89208984375 2242.60205078125 2246.8466796875 2247 2244.58740234375 2242.910400390625 2232.6474609375 2226.231689453125 2226.7548828125 2226.946044921875 2203.712890625 2196.5703125 2194.838623046875 2194.2587890625 2194.075439453125 2193.8193359375 2193.4326171875 2192.977294921875 2192.751953125 2192.8291015625 2186.62646484375 -99999 -99999 -99999 -99999 -99999 -99999 -99999 -99999 -99999 -99999 -99999 -99999
-99999 -99999 -99999 -99999 -99999 -99999 -99999 -99999 -99999 -99999 -99999 -99999 -99999 -99999 -99999 -99999 -99999 -99999 -99999 -99999 -99999 -99999 -99999 -99999 -99999 -99999 -99999 -99999 -99999 -99999 -99999 -99999 -99999 -99999 -99999 -99999 -99999 1999.506591796875 1982.8675537109375 2025.88232421875 2034.8515625 2025.3209228515625 2015.5523681640625 2006.6895751953125 1998.345458984375 1990.5416259765625 1983.400390625 1977.1876220703125 1972.1090087890625 1966.1910400390625 1956.78369140625 1947.4661865234375 1938.8443603515625 1937.0196533203125 1933.81640625 1924.5020751953125 1916.4376220703125 1908.728271484375 1901.2476806640625 1894.3052978515625 1888.54931640625 1885.552734375 1868.3731689453125 1855.3795166015625 1856.3656005859375 1861.8731689453125 1887.681396484375 1900.998779296875 1901.4783935546875 1901.091064453125 1912.6728515625 1931.2115478515625 1936.825439453125 1937.88330078125 1942.9014892578125 1954.4688720703125 1965.046142578125 1973.117919921875 1983.65185546875 1996.7154541015625 1999.8731689453125 1994.3424072265625 2000.531494140625 2016.90966796875 2026.697998046875 2029.324951171875 2033.48681640625 2046.89892578125 2049.54638671875 2048.591064453125 2048.234619140625 2054.651611328125 2068.276611328125 2076.627685546875 2080.5849609375 2073.50341796875 2089.212158203125 2101.38916015625 2100.10595703125 2103.284912109375 2112.886962890625 2124.147216796875 2115.27197265625 2120.982177734375 2131.087890625 2133.79541015625 2135.396484375 2138.33349609375 2142.950439453125 2147.9541015625 2150.970458984375 2152.3857421875 2154.90869140625 2163.72021484375 2167.91357421875 2167.790283203125 2167.533447265625 2178.293212890625 2186.940185546875 2196.056884765625 2192.734619140625 2206.529541015625 2207.958740234375 2216.768310546875 2223.148193359375 2228.966796875 2233.46630859375 2236.46826171875 2237.094482421875 2238.77490234375 2238.65283203125 2239.26171875 2233.984130859375 2222.703125 2216.841796875 2213.08984375 2216.915283203125 2203.09716796875 2197.138671875 2195.675537109375 2195.504638671875 2195.714599609375 2195.854736328125 2195.654052734375 2195.394287109375 2195.3046875 2199.008544921875 2145.6533203125 -99999 -99999 -99999 -99999 -99999 -99999 -99999 -99999 -99999 -99999 -99999 -99999
-99999 -99999 -99999 -99999 -99999 -99999 -99999 -99999 -99999 -99999 -99999 -99999 -99999 -99999 -99999 -99999 -99999 -99999 -99999 -99999 -99999 -99999 -99999 -99999 -99999 -99999 -99999 -99999 -99999 -99999 -99999 -99999 -99999 -99999 -99999 -99999 -99999 1989.1142578125 2017.596923828125 2038.3148193359375 2032.9677734375 2024.857666015625 2015.5242919921875 2006.594482421875 1998.051025390625 1989.80126953125 1982.2371826171875 1975.72412109375 1970.1390380859375 1960.7493896484375 1951.384765625 1942.3265380859375 1936.4344482421875 1934.94091796875 1933.581298828125 1926.0635986328125 1918.0333251953125 1909.9473876953125 1902.36279296875 1895.669921875 1891.223876953125 1890.8984375 1883.36572265625 1859.216552734375 1858.5443115234375 1859 1869.405029296875 1899.1953125 1899.2918701171875 1899.2086181640625 1903.376708984375 1933.3062744140625 1933.8575439453125 1933.7388916015625 1938.258056640625 1949.6636962890625 1960.0654296875 1966.6845703125 1972.2467041015625 1988.809814453125 1995.5762939453125 1994 1994.9649658203125 2014.9346923828125 2023.3458251953125 2024.7933349609375 2027.730712890625 2044.9852294921875 2045 2045 2044.838134765625 2049.89501953125 2064.540771484375 2069.5009765625 2071.565185546875 2071.2138671875 2085.569580078125 2089.678955078125 2092.24462890625 2096.0771484375 2105.4873046875 2112.70947265625 2111.025146484375 2111.43115234375 2118.880859375 2131.259033203125 2132.5458984375 2134.75390625 2139.404052734375 2144.1923828125 2146.861328125 2147.505615234375 2148.743408203125 2153.654296875 2155.8046875 2157.70703125 2164.88525390625 2177.69091796875 2187.71923828125 2210.973388671875 2200.614990234375 2202.548095703125 2206.089111328125 2213.55859375 2221.1064453125 2228.584716796875 2232.368408203125 2233.713134765625 2233.306396484375 2236.1103515625 2237.680908203125 2238 2228.84716796875 2206 2206 2206 2210.0068359375 2200.504150390625 2195.937744140625 2195.95556640625 2196.771484375 2197.629638671875 2198.03369140625 2197.940673828125 2197.815185546875 2200.346435546875 2142.167724609375 -99999 -99999 -99999 -99999 -99999 -99999 -99999 -99999 -99999 -99999 -99999 -99999 -99999
-99999 -99999 -99999 -99999 -99999 -99999 -99999 -99999 -99999 -99999 -99999 -99999 -99999 -99999 -99999 -99999 -99999 -99999 -99999 -99999 -99999 -99999 -99999 -99999 -99999 -99999 -99999 -99999 -99999 -99999 -99999 -99999 -99999 -99999 -99999 -99999 1996.0989990234375 2009.8641357421875 2041.5360107421875 2037.3721923828125 2032.134765625 2024.21484375 2015.457763671875 2006.6370849609375 1997.843505859375 1989.0067138671875 1980.2587890625 1973.1768798828125 1966.347900390625 1956.2325439453125 1945.407470703125 1936.9820556640625 1934.4085693359375 1932.15771484375 1929.4617919921875 1927.681884765625 1920.637451171875 1911.59033203125 1901.7618408203125 1891.8670654296875 1891 1891 1873.0404052734375 1859 1859 1859 1872.2808837890625 1886.3583984375 1894.6087646484375 1902.517333984375 1912.1199951171875 1922.886962890625 1930.4945068359375 1932.869873046875 1936.0853271484375 1946.3204345703125 1955.9818115234375 1962.208740234375 1970.3302001953125 1982.826904296875 1993.861328125 1994 1997.236328125 2017.1199951171875 2022 2022 2022 -99999 2045 2044.9276123046875 2043.981689453125 2046.61669921875 2052.95849609375 2060.3095703125 2066.36279296875 2069.030029296875 2085.7919921875 2086 2086 2086.497314453125 2096.326904296875 2110.498779296875 2111 2112.9130859375 2118.798583984375 2128.368408203125 2131 2131.03515625 2135.650146484375 2141.80908203125 2143.96240234375 2143.25927734375 2145.97119140625 2150.826416015625 2152.708740234375 2154.4951171875 2160.77294921875 2176.7431640625 2179 2179 2183.629150390625 2193.8544921875 2200.2275390625 2208.3515625 2217.811767578125 2228.695556640625 2232.803466796875 2233 2233.725341796875 2236.07421875 2237.72314453125 2238 2232.30322265625 2206.01220703125 2206.346923828125 2206 2206.524169921875 2198.281005859375 2192.468994140625 2195.476318359375 2198.194580078125 2199.90087890625 2200.388427734375 2200.3291015625 2200.2021484375 2155.483642578125 -99999 -99999 -99999 -99999 -99999 -99999 -99999 -99999 -99999 -99999 -99999 -99999 -99999 -99999
-99999 -99999 -99999 -99999 -99999 -99999 -99999 -99999 -99999 -99999 -99999 -99999 -99999 -99999 -99999 -99999 -99999 -99999 -99999 -99999 -99999 -99999 -99999 -99999 -99999 -99999 -99999 -99999 -99999 -99999 -99999 -99999 -99999 -99999 -99999 2002.060791015625 2002.3585205078125 2042.3165283203125 2041.031494140625 2036.67626953125 2032.0452880859375 2023.824951171875 2015.3856201171875 2006.751708984375 1997.9395751953125 1988.4852294921875 1978.0811767578125 1970.0308837890625 1967.6431884765625 1958.310302734375 1941.5872802734375 1937.0972900390625 1934.1099853515625 1931.0745849609375 1928.670166015625 1927.0345458984375 1927.232421875 1917.1395263671875 1899.2967529296875 1890.1514892578125 1891 1889.0986328125 1875.7698974609375 1859.138427734375 1859.0712890625 1863.1204833984375 1875.262939453125 1885.4090576171875 1893.869873046875 1902.8238525390625 1911.025634765625 1918.85888671875 1925.677001953125 1929.8759765625 1933.3704833984375 1944.7257080078125 1953.637451171875 1961.8392333984375 1969.726318359375 1977.835205078125 1985.8209228515625 1991.618408203125 1998.78955078125 2021.7364501953125 2021.772216796875 2022 2026.181640625 2039.149658203125 2045 2044.970458984375 2040.5311279296875 2039.235595703125 2043.8712158203125 2051.187255859375 2058.91357421875 2069.17431640625 2073.9990234375 2079.484619140625 2085.5341796875 2086.00146484375 2106.609619140625 2110.998291015625 2111 2112.519287109375 2115.743896484375 2120.49072265625 2129.560791015625 2130.863525390625 2132.376220703125 2138.02783203125 2141.3310546875 2144.140380859375 2150.95068359375 2149.89794921875 2149.495361328125 2150.78759765625 2158.88134765625 2177.98095703125 2178.76025390625 2178.157470703125 2178.79052734375 2187.17041015625 2193.395751953125 2200.070556640625 2209.55126953125 2228.803466796875 2233 2233 2233.190673828125 2236.526123046875 2238.033447265625 2238 2237.96044921875 2219.089599609375 2212.72900390625 2208.943359375 2204.899658203125 2194.061279296875 2184.234375 2194.22021484375 2200.427734375 2202.718505859375 2202.935791015625 2202.693359375 2169.617431640625 -99999 -99999 -99999 -99999 -99999 -99999 -99999 -99999 -99999 -99999 -99999 -99999 -99999 -99999 -99999
-99999 -99999 -99999 -99999 -99999 -99999 -99999 -99999 -99999 -99999 -99999 -99999 -99999 -99999 -99999 -99999 -99999 -99999 -99999 -99999 -99999 -99999 -99999 -99999 -99999 -99999 -99999 -99999 -99999 -99999 -99999 -99999 -99999 -99999 -99999 1999.3209228515625 2036.730712890625 2044.414794921875 2040.468017578125 2035.0550537109375 2032.021728515625 2024.5247802734375 2015.5875244140625 2007.1800537109375 1998.66064453125 1989.318603515625 1976.1805419921875 1970.3660888671875 1970.47119140625 1968.383544921875 1950.3612060546875 1941.0704345703125 1935.2659912109375 1930.638916015625 1927.0184326171875 1924.39208984375 1922.4365234375 1921.279541015625 1887.9437255859375 1873.7012939453125 1883.0638427734375 1879.29638671875 1870.57568359375 1861.6064453125 1860.383544921875 1866.566162109375 1877.002197265625 1885.8974609375 1894.090087890625 1902.435791015625 1910.0262451171875 1916.9451904296875 1923.33935546875 1927.7066650390625 1927.255615234375 1944.3011474609375 1952.488037109375 1959.5478515625 1966.1248779296875 1972.6702880859375 1979.6422119140625 1987.1163330078125 1995.1561279296875 2006.3231201171875 2008.1795654296875 2017.5850830078125 2013.70849609375 2026.303466796875 2036.793701171875 2041.70703125 2036.447998046875 2027.077880859375 2035.1593017578125 2042.0389404296875 2047.1053466796875 2057.068603515625 2062.828857421875 2068.457763671875 2077.631591796875 2085.229248046875 2093.541259765625 2101.22607421875 2102.243408203125 2094.08935546875 2104.713623046875 2107.885498046875 2117.010009765625 2119.34375 2123.205078125 2128.1318359375 2130.356689453125 2139.8515625 2147.6689453125 2146.89697265625 2144.88720703125 2145.864501953125 2155.200439453125 2173.75830078125 2170.023193359375 2166.764892578125 2171.916748046875 2181.8544921875 2187.146728515625 2190.037841796875 2190.1923828125 2219.4638671875 2230.9072265625 2229.201171875 2228.16845703125 2232.50341796875 2237.9765625 2238.189453125 2238.03125 2229.590087890625 2221.09423828125 2222.40380859375 2209.15185546875 2199.062255859375 2191.2724609375 2192.240234375 2206.160400390625 2206.447265625 2205.435302734375 2184.041015625 2138.375732421875 -99999 -99999 -99999 -99999 -99999 -99999 -99999 -99999 -99999 -99999 -99999 -99999 -99999 -99999 -99999
-99999 -99999 -99999 -99999 -99999 -99999 -99999 -99999 -99999 -99999 -99999 -99999 -99999 -99999 -99999 -99999 -99999 -99999 -99999 -99999 -99999 -99999 -99999 -99999 -99999 -99999 -99999 -99999 -99999 -99999 -99999 -99999 -99999 -99999 2003.4854736328125 2030.3287353515625 2047.121826171875 2044.2752685546875 2039.4835205078125 2034.32958984375 2032.19775390625 2029.6187744140625 2016.0411376953125 2008.150634765625 2001.331787109375 1996.265869140625 1986.0582275390625 1973.8214111328125 1970.8887939453125 1968.466064453125 1952.408935546875 1942.2789306640625 1935.3466796875 1929.75537109375 1924.9827880859375 1921.1199951171875 1917.3310546875 1912.994873046875 1892.398681640625 1871 1871.0545654296875 1871.693359375 1868.7193603515625 1862 1861.4306640625 1868.0428466796875 1878.946533203125 1887.362548828125 1894.3082275390625 1902.0712890625 1909.3375244140625 1916.4281005859375 1922.739501953125 1927.4632568359375 1931.16552734375 1945.8148193359375 1950.998779296875 1956.1441650390625 1961.3902587890625 1967.0899658203125 1973.5611572265625 1980.984375 1989.2032470703125 1998.388671875 2001 2001.8037109375 2003.0760498046875 2019.310546875 2030.43505859375 2032.21240234375 2028.605224609375 2024.9617919921875 2034.00341796875 2037.822998046875 2038 2044.217529296875 2050.692626953125 2058.7509765625 2068.4033203125 2075.30322265625 2082.197509765625 2085.830322265625 2085.89794921875 2084.223876953125 2087.7734375 2100.484619140625 2102.800537109375 2103 2117.577880859375 2126 2126.16650390625 2130.983642578125 2137.109619140625 2142.111572265625 2144 2144 2144.936279296875 2161.8935546875 2164 2164 2164.28515625 2184 2184 2184 2184 2207.3056640625 2220.524658203125 2219.8056640625 2220.1142578125 2226.8271484375 2237.853271484375 2239.4248046875 2239.492431640625 2233.6845703125 2223.477294921875 2221.691162109375 2213.53662109375 2204.924072265625 2200.360107421875 2202.605224609375 2209 2209 2198.88427734375 2127.808349609375 -99999 -99999 -99999 -99999 -99999 -99999 -99999 -99999 -99999 -99999 -99999 -99999 -99999 -99999 -99999 -99999
-99999 -99999 -99999 -99999 -99999 -99999 -99999 -99999 -99999 -99999 -99999 -99999 -99999 -99999 -99999 -99999 -99999 -99999 -99999 -99999 -99999 -99999 -99999 -99999 -99999 -99999 -99999 -99999 -99999 -99999 -99999 -99999 -99999 2006.912353515625 2023.5189208984375 2050.303466796875 2048.46630859375 2043.0902099609375 2037.3182373046875 2035.9869384765625 2032.0748291015625 2024.833984375 2011.16357421875 2007.9652099609375 2007.9903564453125 2007.7578125 1989.0057373046875 1975.8511962890625 1971.07958984375 1965.6016845703125 1952.4798583984375 1941.83984375 1934.3992919921875 1928.240966796875 1922.5250244140625 1917.4415283203125 1911.8946533203125 1906.4036865234375 1884.27783203125 1871 1871 1871 1870.8035888671875 1863.07568359375 1862 1864.95263671875 1882.015869140625 1890.777587890625 1894.08154296875 1901.09814453125 1909.391357421875 1917.147705078125 1922.6636962890625 1926.660400390625 1932.17626953125 1941.9598388671875 1948.160400390625 1951.779052734375 1955.7843017578125 1960.7198486328125 1966.6568603515625 1973.842041015625 1982.688720703125 1993.3338623046875 2002.2943115234375 2004.8580322265625 2009.5933837890625 2017.664306640625 2024.210205078125 2026.0350341796875 2025.275634765625 2026.00390625 2032.3642578125 2038 2038 2038 2045.804931640625 2056.342529296875 2060.20849609375 2065.228271484375 2070.724365234375 2073.860107421875 2076.437255859375 2078.774658203125 2082.45361328125 2091.214111328125 2098.442626953125 2103 2109.317626953125 2126 2126 2126 2131.519287109375 2141.647705078125 2144 2144.607421875 2156.334716796875 2163.46142578125 2164 2164 2168.9423828125 2178.864990234375 2181.63330078125 2187.50439453125 2203.83251953125 2215.7314453125 2216 2216 2217.260498046875 2236.82861328125 2238.553955078125 2233.927978515625 2231.177734375 2228.0556640625 2224.42138671875 2219.727294921875 2214.08935546875 2209.95947265625 2208.54052734375 2208.668212890625 2208.0673828125 2207.35302734375 2134.779541015625 -99999 -99999 -99999 -99999 -99999 -99999 -99999 -99999 -99999 -99999 -99999 -99999 -99999 -99999 -99999 -99999 -99999
-99999 -99999 -99999 -99999 -99999 -99999 -99999 -99999 -99999 -99999 -99999 -99999 -99999 -99999 -99999 -99999 -99999 -99999 -99999 -99999 -99999 -99999 -99999 -99999 -99999 -99999 -99999 -99999 -99999 -99999 -99999 -99999 2010.3272705078125 2016.354248046875 2052.814208984375 2052.772216796875 2051.78466796875 2045.5618896484375 2044.9866943359375 2035.153564453125 2030.4700927734375 2024.532470703125 2015.1773681640625 2009.1343994140625 2008 2004.11865234375 1976.2164306640625 1971.2686767578125 1971 1966.60546875 1951.5111083984375 1939.435546875 1933.2225341796875 1926.708984375 1919.78466796875 1912.812255859375 1906 1906 1878.5302734375 1872.74560546875 1872.17724609375 1871.0068359375 1870.787841796875 1867.9864501953125 1864.5582275390625 1863.3868408203125 1883.6790771484375 1892.206298828125 1893.772705078125 1897.85009765625 1912.9144287109375 1920.208740234375 1922.6912841796875 1923.911376953125 1928.364501953125 1935.68408203125 1945.189697265625 1947.023681640625 1948.7672119140625 1952.941650390625 1958.5594482421875 1965.840576171875 1977.6812744140625 1996.06494140625 1997.6185302734375 2000.89501953125 2005.49853515625 2011.465087890625 2017.26806640625 2022.65576171875 2021.5018310546875 2021.88720703125 2028.5133056640625 2038 2038 2042.0477294921875 2051.20849609375 2056 2053.009765625 2054.028076171875 2059.727294921875 2063.8994140625 2068.1298828125 2071.821044921875 2076.428466796875 2084.18896484375 2091.908935546875 2103 2114.942138671875 2124.98828125 2123.040283203125 2125.899658203125 2132.43896484375 2144 2143.762939453125 2144.3515625 2152.527587890625 2157.72314453125 2162.210693359375 2164 2166.048583984375 2172.119140625 2178.856689453125 2187.25537109375 2197.326171875 2206.264892578125 2208.39111328125 2207.098876953125 2211.791015625 2218.341064453125 2217.437744140625 2218.26611328125 2217.98046875 2216.171142578125 2213.73095703125 2211.00830078125 2208.335205078125 2206.138916015625 2204.486328125 2203.3701171875 2202.462646484375 2147.00732421875 -99999 -99999 -99999 -99999 -99999 -99999 -99999 -99999 -99999 -99999 -99999 -99999 -99999 -99999 -99999 -99999 -99999 -99999
-99999 -99999 -99999 -99999 -99999 -99999 -99999 -99999 -99999 -99999 -99999 -99999 -99999 -99999 -99999 -99999 -99999 -99999 -99999 -99999 -99999 -99999 -99999 -99999 -99999 -99999 -99999 -99999 -99999 -99999 -99999 -99999 2013.888916015625 2049.57470703125 2051.193359375 2049.588134765625 2045.1995849609375 2040.4844970703125 2036.5150146484375 2032.897216796875 2029.290283203125 2027.8912353515625 2015.7589111328125 2005.8402099609375 2000.4892578125 1985.565673828125 1964.9825439453125 1962.5968017578125 1965.85205078125 1967.5814208984375 1951.6688232421875 1931.158447265625 1931.707275390625 1928.02978515625 1913.341064453125 1897.4185791015625 1891.846435546875 1898.607666015625 1876.5828857421875 1877.0140380859375 1876.830810546875 1874.4534912109375 1874.289794921875 1872.3948974609375 1869.2779541015625 1865.521484375 1880.0645751953125 1890.6826171875 1893.6329345703125 1899.2935791015625 1908.9346923828125 1914.7353515625 1915.9610595703125 1914.8399658203125 1919.7811279296875 1929.4224853515625 1938.4852294921875 1943.262939453125 1938.01611328125 1941.7374267578125 1947.359375 1951.8519287109375 1972.9183349609375 1984.244873046875 1990.330810546875 1994.532470703125 1999.47314453125 2005.2589111328125 2010.3446044921875 2014.1260986328125 2009.4215087890625 2009.758056640625 2017.0472412109375 2035.13232421875 2035.417724609375 2037.431396484375 2042.5498046875 2047.012939453125 2046.6749267578125 2038.9210205078125 2048.955078125 2056.185546875 2060.468994140625 2064.711181640625 2070.66748046875 2077.0546875 2079.601318359375 2096.910888671875 2105.49658203125 2110.680908203125 2111.61572265625 2123.535400390625 2120.9228515625 2133.9443359375 2131.92236328125 2131.384765625 2142.336181640625 2150.265625 2154.70263671875 2155.99072265625 2161.567626953125 2168.4638671875 2176.167724609375 2184.043212890625 2191.72509765625 2198.06396484375 2200.5341796875 2196.725830078125 2194.6767578125 2203.77978515625 2207.343994140625 2208.654541015625 2208.318359375 2207.1494140625 2205.500732421875 2203.69580078125 2201.969970703125 2200.36669921875 2199.06103515625 2197.647216796875 2158.845947265625 -99999 -99999 -99999 -99999 -99999 -99999 -99999 -99999 -99999 -99999 -99999 -99999 -99999 -99999 -99999 -99999 -99999 -99999 -99999
-99999 -99999 -99999 -99999 -99999 -99999 -99999 -99999 -99999 -99999 -99999 -99999 -99999 -99999 -99999 -99999 -99999 -99999 -99999 -99999 -99999 -99999 -99999 -99999 -99999 -99999 -99999 -99999 -99999 -99999 -99999 2014.8818359375 2044.0794677734375 2053.53564453125 2048.566162109375 2044.688720703125 2039.8372802734375 2035.5140380859375 2031.749267578125 2028.2523193359375 2024.8916015625 2023.2174072265625 2010.52734375 1998 1994.8778076171875 1982.16748046875 1959.1273193359375 1956.89404296875 1956.783203125 1952.8006591796875 1942.472412109375 1925.961669921875 1918.8773193359375 1911.8515625 1896.0863037109375 1876.7850341796875 1876 1877.0982666015625 1880.004638671875 1880.8704833984375 1881 1880.1767578125 1879.0848388671875 1877.552001953125 1875.0361328125 1875.3253173828125 1885.403564453125 1892.81591796875 1895.192138671875 1899.627197265625 1904.875244140625 1908.0419921875 1909.4970703125 1910.66650390625 1916.1107177734375 1926.1229248046875 1929.6290283203125 1931.150146484375 1927.8404541015625 1936.692138671875 1943.92578125 1945 1952.3863525390625 1974.385009765625 1982.5621337890625 1987.2330322265625 1992.57470703125 1998.421142578125 2003.2628173828125 2006.239990234375 2003.7408447265625 1996.62890625 2016 2023.5465087890625 2025.048095703125 2028.1944580078125 2033.063720703125 2037.5174560546875 2040.699951171875 2041.81884765625 2046.46142578125 2051 2052.517578125 2058.317138671875 2066.5302734375 2074.42578125 2076.613037109375 2084.813232421875 2093.6455078125 2097.9111328125 2097 2101.589599609375 2113.445068359375 2123.723388671875 2123.9443359375 2123 2132.52880859375 2149 2149 2150.37646484375 2157.758544921875 2165.439697265625 2173.13720703125 2180.523193359375 2187.489501953125 2192.767578125 2194.09228515625 2188.89111328125 2192.6298828125 2197.41796875 2199.95166015625 2200.70703125 2200.456787109375 2199.595703125 2198.40478515625 2197.092041015625 2195.755859375 2194.469970703125 2192.878662109375 2170.073486328125 2116.108154296875 -99999 -99999 -99999 -99999 -99999 -99999 -99999 -99999 -99999 -99999 -99999 -99999 -99999 -99999 -99999 -99999 -99999 -99999 -99999
-99999 -99999 -99999 -99999 -99999 -99999 -99999 -99999 -99999 -99999 -99999 -99999 -99999 -99999 -99999 -99999 -99999 -99999 -99999 -99999 -99999 -99999 -99999 -99999 -99999 -99999 -99999 -99999 -99999 -99999 2015.4005126953125 2037.600830078125 2058.032958984375 2049.01953125 2045.014892578125 2039.62060546875 2034.6043701171875 2030.359375 2026.4783935546875 2022.773193359375 2019.356689453125 2016.7415771484375 2006.456787109375 1998 1998 1994.3961181640625 1964.3740234375 1954.0206298828125 1949.117431640625 1942.2967529296875 1931.599853515625 1917.609130859375 1909 1909 1907.03857421875 1887.97900390625 1876.0660400390625 1878.1265869140625 1880.4429931640625 1881 1881.032958984375 1882.1153564453125 1882.8851318359375 1882.4805908203125 1881.6806640625 1881.7447509765625 1887.7135009765625 1894.993408203125 1895.45556640625 1898.4434814453125 1901.7503662109375 1904.1112060546875 1905.58154296875 1908.0911865234375 1912.4298095703125 1917.939453125 1922.4866943359375 1925.9501953125 1927.8218994140625 1943.03857421875 1945 1945 1947.166259765625 1969.0611572265625 1975.7291259765625 1979.3189697265625 1984.87939453125 1991.791259765625 1997.59423828125 2001.04248046875 1999.0478515625 1996 2013.421875 2015.4912109375 2014.7069091796875 2017.7197265625 2023.602294921875 2030.2410888671875 2037.199951171875 2042.48291015625 2046.9580078125 2050.99951171875 2051 2052.5341796875 2065.868408203125 2076.001708984375 2076 2076.284423828125 2085.687744140625 2097 2097.129638671875 2102.222900390625 2111.53173828125 2121.482177734375 2123 2123 2131.731689453125 2148.27197265625 2149 2149 2154.459716796875 2162.83544921875 2170.081298828125 2177.005859375 2183.823974609375 2189.4990234375 2189.310546875 2185.896728515625 2188.736328125 2191.764404296875 2193.3095703125 2193.79345703125 2193.557373046875 2192.8759765625 2191.941650390625 2190.864013671875 2189.772216796875 2188.136474609375 2179.61669921875 2113.718505859375 -99999 -99999 -99999 -99999 -99999 -99999 -99999 -99999 -99999 -99999 -99999 -99999 -99999 -99999 -99999 -99999 -99999 -99999 -99999 -99999
-99999 -99999 -99999 -99999 -99999 -99999 -99999 -99999 -99999 -99999 -99999 -99999 -99999 -99999 -99999 -99999 -99999 -99999 -99999 -99999 -99999 -99999 -99999 -99999 -99999 -99999 -99999 -99999 -99999 -99999 2030.549072265625 2061.89501953125 2049.674560546875 2048.9970703125 2040.536376953125 2034.265380859375 2029.2193603515625 2024.9195556640625 2020.889404296875 2016.9078369140625 2013.353515625 2011.749755859375 2001.106689453125 1995.442626953125 1997.9862060546875 1998 1960.867919921875 1950.72265625 1943.07470703125 1932.883544921875 1920.563720703125 1908.993896484375 1909 1909 1901.6119384765625 1888.53076171875 1876.2723388671875 1878.5687255859375 1880.486083984375 1881 1881.6300048828125 1884.5159912109375 1885.229736328125 1884.525146484375 1883.7215576171875 1883.23974609375 1887.08740234375 1894.96826171875 1895 1896.5889892578125 1898.6929931640625 1900.3143310546875 1901.75830078125 1904.3873291015625 1907.967041015625 1912.1312255859375 1916.559326171875 1921.1990966796875 1926 1940.0400390625 1945 1945 1951.7847900390625 1966.3790283203125 1972 1972 1974.9892578125 1986.1015625 1994.974609375 1998.0972900390625 1996 2000.0888671875 2011.688232421875 2008.1358642578125 2003.307861328125 2005.158447265625 2013.1937255859375 2024.2196044921875 2035.4849853515625 2043.0538330078125 2048.5185546875 2051 2051 2051 2087.197509765625 2105.354248046875 2075.806884765625 2077.850341796875 2086.508056640625 2097 2097 2099.2958984375 2110.55419921875 2123 2123 2123 2124.80419921875 2142.17529296875 2146.054443359375 2148.679931640625 2149.0009765625 2161.111572265625 2167.196044921875 2172.967529296875 2180.006103515625 2188.63916015625 2185.15673828125 2182.39306640625 2184.271728515625 2186.17822265625 2187.185791015625 2187.484130859375 2187.25146484375 2186.6708984375 2185.86083984375 2184.988037109375 2183.47412109375 2180.120361328125 2124.193115234375 -99999 -99999 -99999 -99999 -99999 -99999 -99999 -99999 -99999 -99999 -99999 -99999 -99999 -99999 -99999 -99999 -99999 -99999 -99999 -99999 -99999
-99999 -99999 -99999 -99999 -99999 -99999 -99999 -99999 -99999 -99999 -99999 -99999 -99999 -99999 -99999 -99999 -99999 -99999 -99999 -99999 -99999 -99999 -99999 -99999 -99999 -99999 -99999 -99999 -99999 2026.8795166015625 2063.650634765625 2052.2998046875 2045.7607421875 2043.644287109375 2034.6260986328125 2028.5760498046875 2023.7275390625 2019.3250732421875 2015.0224609375 2010.6585693359375 2006.7393798828125 2007.143798828125 2004.1484375 1985.25244140625 1991.758544921875 1980.57763671875 1964.1634521484375 1953.223876953125 1937.9290771484375 1922.3681640625 1908.375 1903.783203125 1904.869384765625 1907.25146484375 1897.670166015625 1887.5408935546875 1877.514404296875 1880.1197509765625 1881.7437744140625 1882.1741943359375 1882.82568359375 1888.5052490234375 1887.83837890625 1886.326171875 1885.50048828125 1885.925048828125 1888.6279296875 1892.6644287109375 1894.1175537109375 1894.6544189453125 1895.1890869140625 1896.33447265625 1897.7398681640625 1900.096923828125 1903.38427734375 1907.0162353515625 1910.48681640625 1914.6968994140625 1925.6715087890625 1932.7305908203125 1937.4761962890625 1934.10400390625 1942.4229736328125 1955.93115234375 1970.146240234375 1958.6937255859375 1949.09814453125 1971.30126953125 1991.057373046875 1991.647705078125 1994.1627197265625 1995.7626953125 1994.809814453125 1997.5765380859375 1989.8809814453125 1988.5740966796875 1998.23681640625 2021.0849609375 2037.815673828125 2044.40234375 2050.992431640625 2049.596435546875 2047.34814453125 2047.659423828125 2075.741455078125 2077.843017578125 2065.962890625 2076.69384765625 2083.38916015625 2086.554443359375 2081.607421875 2084.2001953125 2105.561279296875 2110.0947265625 2114.871826171875 2117.644287109375 2123.058837890625 2129.173828125 2135.779296875 2143.747802734375 2151.371337890625 2160.672119140625 2163.755126953125 2164.41943359375 2165.8046875 2179.454833984375 2179.721435546875 2178.25341796875 2179.46533203125 2180.703125 2181.40234375 2181.65576171875 2181.340087890625 2180.802978515625 2180.1767578125 2178.869384765625 2174.138427734375 2134.197998046875 -99999 -99999 -99999 -99999 -99999 -99999 -99999 -99999 -99999 -99999 -99999 -99999 -99999 -99999 -99999 -99999 -99999 -99999 -99999 -99999 -99999 -99999
-99999 -99999 -99999 -99999 -99999 -99999 -99999 -99999 -99999 -99999 -99999 -99999 -99999 -99999 -99999 -99999 -99999 -99999 -99999 -99999 -99999 -99999 -99999 -99999 -99999 -99999 -99999 -99999 2024.0321044921875 2059.52978515625 2056.601318359375 2045.40673828125 2038.64453125 2030.5411376953125 2021.9400634765625 2022.47314453125 2018.603515625 2013.7420654296875 2008.507080078125 2003.21875 1997.4124755859375 1985.4871826171875 1981.4202880859375 1961.7156982421875 1957.9012451171875 1957.3681640625 1950.6875 1942.759521484375 1927.7137451171875 1912 1902.7708740234375 1894.718017578125 1892.323486328125 1894.9942626953125 1892.141357421875 1887.234619140625 1883.2608642578125 1883.8045654296875 1884.2320556640625 1885.1513671875 1886.38525390625 1888.02490234375 1888.311767578125 1887.8944091796875 1887.28369140625 1887.2652587890625 1888.8697509765625 1891.3751220703125 1892.5518798828125 1893.1639404296875 1893.5675048828125 1894 1894 1895.4656982421875 1898.7174072265625 1902.9228515625 1905.4949951171875 1907.423095703125 1916.7012939453125 1921.9576416015625 1921.111572265625 1919.293212890625 1930.3463134765625 1942.931396484375 1951.3421630859375 1945.6083984375 1932.7021484375 1951.7850341796875 1958.6795654296875 1962.4022216796875 1963.0513916015625 1976.2698974609375 1981.930419921875 1985.023193359375 1985.0186767578125 1987.9326171875 1999.328369140625 2018.1158447265625 2031.360595703125 2039.3795166015625 2043.4903564453125 2041.1378173828125 2036.205810546875 2038.2288818359375 2046.824951171875 2046.5924072265625 2055.177734375 2067.38134765625 2076.42041015625 2077.756103515625 2073 2073 2087.451171875 2098.67431640625 2105.143798828125 2109.906494140625 2116.12158203125 2122.20361328125 2128.399658203125 2136.244873046875 2146.106689453125 2154.5849609375 2154.145751953125 2147 2152.18408203125 2171.1904296875 2174.5380859375 2173.60205078125 2174.458740234375 2175.351806640625 2175.87255859375 2175.9677734375 2175.710205078125 2175.29931640625 2174.351806640625 2168.168701171875 2143.343505859375 2106.768310546875 -99999 -99999 -99999 -99999 -99999 -99999 -99999 -99999 -99999 -99999 -99999 -99999 -99999 -99999 -99999 -99999 -99999 -99999 -99999 -99999 -99999 -99999
-99999 -99999 -99999 -99999 -99999 -99999 -99999 -99999 -99999 -99999 -99999 -99999 -99999 -99999 -99999 -99999 -99999 -99999 -99999 -99999 -99999 -99999 -99999 -99999 -99999 -99999 -99999 2021.8809814453125 2053.115966796875 2061.724365234375 2046.109375 2038.5499267578125 2029.6763916015625 2022.9901123046875 2016.8011474609375 2016.9998779296875 2014.8907470703125 2009.1881103515625 2002.512939453125 1995.8074951171875 1989.0860595703125 1977.0345458984375 1962.989013671875 1949.3065185546875 1945.2725830078125 1942.30517578125 1937.0089111328125 1930.513916015625 1919.2230224609375 1906.9683837890625 1895.21728515625 1887.01708984375 1887 1888.4156494140625 1887.904541015625 1885.5194091796875 1884 1884.1204833984375 1884.2744140625 1884.3868408203125 1884.8428955078125 1885.2889404296875 1885.30126953125 1885.143310546875 1885.66650390625 1886.9046630859375 1888.30322265625 1890.0823974609375 1891.1695556640625 1891.6492919921875 1892.1478271484375 1893.301025390625 1894 1894 1895.1434326171875 1904.9461669921875 1906 1906.2900390625 1912.2259521484375 1917.0213623046875 1918.920166015625 1919 1919 1929.807373046875 1937.1998291015625 1935.6383056640625 1933.3553466796875 1941.9759521484375 1951.072265625 1954 1953.9212646484375 1960.56787109375 1979.6451416015625 1985 1986.1829833984375 1992.7509765625 2003.36865234375 2015.284912109375 2025.1292724609375 2032.6583251953125 2037.9183349609375 2035.61328125 2035 2034.60791015625 2038.592041015625 2042.319091796875 2049.66455078125 2060.39892578125 2071.236328125 2073.02880859375 2073 2073 2083.359130859375 2092.0869140625 2098.318115234375 2103.4169921875 2109.2841796875 2115.267333984375 2121.36279296875 2128.572509765625 2139.31884765625 2150.246826171875 2149.4345703125 2147 2147 2164.861572265625 2170.32958984375 2168.864990234375 2169.38330078125 2170.123779296875 2170.551513671875 2170.5859375 2170.361328125 2169.939453125 2162.2099609375 2151.231689453125 2096.52001953125 -99999 -99999 -99999 -99999 -99999 -99999 -99999 -99999 -99999 -99999 -99999 -99999 -99999 -99999 -99999 -99999 -99999 -99999 -99999 -99999 -99999 -99999 -99999
-99999 -99999 -99999 -99999 -99999 -99999 -99999 -99999 -99999 -99999 -99999 -99999 -99999 -99999 -99999 -99999 -99999 -99999 -99999 -99999 -99999 -99999 -99999 -99999 -99999 -99999 -99999 2045.43896484375 2066.91650390625 2047.2176513671875 2039.0330810546875 2028.9495849609375 2022.1051025390625 2017.1888427734375 2014.138916015625 2013.69677734375 2015.9158935546875 2007.4117431640625 1998.105712890625 1991.1533203125 1985.92578125 1977.834716796875 1960.7335205078125 1942.072265625 1934.4632568359375 1929.8687744140625 1924.3963623046875 1919.2364501953125 1911.273681640625 1903.7938232421875 1896.4603271484375 1889.9007568359375 1887 1886.7947998046875 1885.9483642578125 1884.838134765625 1884 1883.693359375 1883.0789794921875 1882.81689453125 1882.624755859375 1882.1248779296875 1881.68212890625 1881.440673828125 1881.8282470703125 1882.95068359375 1884.87451171875 1887.2314453125 1889.083984375 1890.14306640625 1890.7255859375 1893.23388671875 1894 1894 1894.4779052734375 1904.587890625 1905.11376953125 1904.548583984375 1912.2647705078125 1918.34912109375 1919 1919 1919.3701171875 1929.5850830078125 1930.1282958984375 1926.55224609375 1931.366943359375 1941.5069580078125 1952.10546875 1950.5921630859375 1950.5084228515625 1957.2781982421875 1973.58251953125 1985 1986.962646484375 1996.3458251953125 2005.97119140625 2013.281494140625 2019.2821044921875 2025.5782470703125 2034.46435546875 2035 2029.8780517578125 2029.6824951171875 2032.7645263671875 2037.080322265625 2043.2349853515625 2053.5615234375 2070.6259765625 2073 2073 2073.936767578125 2080.550537109375 2087.339111328125 2093.046875 2097.8984375 2103.068359375 2108.498779296875 2114.108642578125 2120.54638671875 2132.293701171875 2147.999267578125 2147.726318359375 2149.685302734375 2153.61474609375 2161.782470703125 2167.5947265625 2164.0224609375 2164.29296875 2165.01806640625 2165.407958984375 2165.406982421875 2165.66357421875 2156.268798828125 2156.032470703125 2102.84521484375 -99999 -99999 -99999 -99999 -99999 -99999 -99999 -99999 -99999 -99999 -99999 -99999 -99999 -99999 -99999 -99999 -99999 -99999 -99999 -99999 -99999 -99999 -99999 -99999
-99999 -99999 -99999 -99999 -99999 -99999 -99999 -99999 -99999 -99999 -99999 -99999 -99999 -99999 -99999 -99999 -99999 -99999 -99999 -99999 -99999 -99999 -99999 -99999 -99999 -99999 2038.6009521484375 2072.208984375 2048.95703125 2039.7518310546875 2026.5650634765625 2019.9658203125 2016.7916259765625 2012.25439453125 2009.0472412109375 2005.757568359375 2001.9073486328125 1994.587890625 1986.28076171875 1976.3028564453125 1966.698486328125 1972.3995361328125 1959.754638671875 1934.7647705078125 1925.06396484375 1918.900634765625 1912.6678466796875 1907.33642578125 1905.9365234375 1901.3759765625 1896.5948486328125 1891.970458984375 1887 1887.1251220703125 1885.3916015625 1882.90625 1883.9986572265625 1882.632568359375 1881.356689453125 1880.80908203125 1879.721435546875 1878.553955078125 1877.7386474609375 1877.431640625 1877.7979736328125 1878.728515625 1880.138427734375 1882.0667724609375 1883.9183349609375 1885.476806640625 1887.637939453125 1890.3060302734375 1891.923583984375 1889.2764892578125 1891.9779052734375 1905.864501953125 1897.8599853515625 1896.9639892578125 1909.0888671875 1916.975341796875 1915.9508056640625 1915.6822509765625 1919.3192138671875 1931.22998046875 1919.5069580078125 1917.3468017578125 1923.4681396484375 1936.6568603515625 1948.241943359375 1942.9715576171875 1943.74658203125 1949.11181640625 1959.5020751953125 1979.159912109375 1982.9119873046875 1991.483154296875 2005.523681640625 2008.371337890625 2011.803955078125 2013.7747802734375 2011.3369140625 2019.5721435546875 2019.2093505859375 2022.4166259765625 2026.8446044921875 2030.7347412109375 2036.5928955078125 2046.0361328125 2054.87939453125 2065.187255859375 2072.60400390625 2072.37109375 2077.669677734375 2083.469970703125 2088.8046875 2093.4345703125 2097.613525390625 2102.027099609375 2106.4697265625 2110.967041015625 2125.283935546875 2140.1181640625 2143.629638671875 2147.495849609375 2152.067138671875 2157.373779296875 2161.77294921875 2158.893798828125 2159.063232421875 2160.053466796875 2160.45458984375 2161.544189453125 2150.359130859375 2151.432373046875 2111.348876953125 -99999 -99999 -99999 -99999 -99999 -99999 -99999 -99999 -99999 -99999 -99999 -99999 -99999 -99999 -99999 -99999 -99999 -99999 -99999 -99999 -99999 -99999 -99999 -99999 -99999
-99999 -99999 -99999 -99999 -99999 -99999 -99999 -99999 -99999 -99999 -99999 -99999 -99999 -99999 -99999 -99999 -99999 -99999 -99999 -99999 -99999 -99999 -99999 -99999 -99999 2031.20068359375 2077.3037109375 2051.859375 2049.763427734375 2028.8564453125 2017.1832275390625 2017.0924072265625 2013.4393310546875 2006.9366455078125 2001.0390625 1994.419921875 1986.447021484375 1976.111572265625 1959.1728515625 1937 1937.0848388671875 1936.333740234375 1932.8780517578125 1921.9796142578125 1915.750732421875 1910.0821533203125 1901.52001953125 1896.397705078125 1900.2696533203125 1898.57861328125 1895.61767578125 1892.302978515625 1889.44384765625 1887.0606689453125 1880.4554443359375 1852.9501953125 1881.781005859375 1881.4439697265625 1879.1983642578125 1878.3328857421875 1876.4012451171875 1874.5989990234375 1873.4842529296875 1873.1063232421875 1873.4068603515625 1874.1278076171875 1875.3817138671875 1877.1796875 1878.887939453125 1880.4503173828125 1882.2147216796875 1884.41943359375 1883.9840087890625 1879.1219482421875 1877.6044921875 1880.777587890625 1879.9217529296875 1879.39794921875 1892.672607421875 1900.707763671875 1893.703369140625 1903.60595703125 1912.1864013671875 1916.09375 1908.923095703125 1909 1909.1712646484375 1926.367919921875 1932.9844970703125 1932.96826171875 1934.099609375 1938.164794921875 1945.022216796875 1947.924560546875 1962.9190673828125 1971.0390625 1981.610107421875 1987.3758544921875 1986.6978759765625 1986.1025390625 1998.2010498046875 2004.1090087890625 2006.9730224609375 2012.36865234375 2023.649169921875 2010.9967041015625 2027.0855712890625 2038.4971923828125 2043.8604736328125 2048.86962890625 2060.94775390625 2068.202392578125 2074.07470703125 2079.7958984375 2085.06396484375 2089.620849609375 2093.655517578125 2096.984619140625 2099.264892578125 2098.55419921875 2116.577880859375 2130.9892578125 2137.962890625 2143.329833984375 2148.291015625 2152.6923828125 2155.459228515625 2150.83544921875 2153.15478515625 2155.267822265625 2157.543701171875 2144.5009765625 2144.587890625 2119.052001953125 2099.02880859375 -99999 -99999 -99999 -99999 -99999 -99999 -99999 -99999 -99999 -99999 -99999 -99999 -99999 -99999 -99999 -99999 -99999 -99999 -99999 -99999 -99999 -99999 -99999 -99999 -99999
-99999 -99999 -99999 -99999 -99999 -99999 -99999 -99999 -99999 -99999 -99999 -99999 -99999 -99999 -99999 -99999 -99999 -99999 -99999 -99999 -99999 -99999 -99999 -99999 -99999 2078.94970703125 2050.62646484375 2044.8350830078125 2037.304443359375 2028.9935302734375 2021.5416259765625 2016.8465576171875 2012.3388671875 1998.6993408203125 1990.1856689453125 1981.954833984375 1972.6533203125 1959.6861572265625 1939.4410400390625 1937 1936.1947021484375 1923.5694580078125 1913.7237548828125 1909.3785400390625 1909.1029052734375 1906.364501953125 1896.4510498046875 1893.236572265625 1896.2501220703125 1895.987548828125 1894.206787109375 1891.876953125 1890.1019287109375 1887.0843505859375 1881.5355224609375 1877.8814697265625 1879.87939453125 1881 1876.290283203125 1875.4696044921875 1872.8115234375 1870.2406005859375 1868.843994140625 1868.426513671875 1868.660400390625 1869.3551025390625 1870.655517578125 1872.3934326171875 1873.9481201171875 1875.354248046875 1876.8236083984375 1878.952392578125 1878.025390625 1873.4425048828125 1872.9583740234375 1873.4749755859375 1873.3802490234375 1874.427490234375 1879.7308349609375 1891.0706787109375 1893 1895.6529541015625 1901.3582763671875 1905.4105224609375 1908.9063720703125 1913.1300048828125 1909.939208984375 1918.56494140625 1923.3658447265625 1924 1924.0673828125 1927.0665283203125 1934.1317138671875 1943 1944.9652099609375 1945.015869140625 1968.9422607421875 1975 1975.0308837890625 1982.0067138671875 1993.7911376953125 2002.5943603515625 2004 2004 1969.054931640625 1959.9359130859375 2000.60986328125 2031.619384765625 2038.6107177734375 2042.9273681640625 2049.04345703125 2062.527099609375 2070.394775390625 2076.301025390625 2081.47119140625 2086.01171875 2090.454833984375 2094.70947265625 2097.814453125 2100.9501953125 2114.494384765625 2126.020751953125 2132.899169921875 2138.697021484375 2143.874267578125 2148.45849609375 2151.77734375 2149.540283203125 2149 2152.842041015625 2138.66015625 2137.633056640625 2125.554443359375 2082.85986328125 -99999 -99999 -99999 -99999 -99999 -99999 -99999 -99999 -99999 -99999 -99999 -99999 -99999 -99999 -99999 -99999 -99999 -99999 -99999 -99999 -99999 -99999 -99999 -99999 -99999 -99999
-99999 -99999 -99999 -99999 -99999 -99999 -99999 -99999 -99999 -99999 -99999 -99999 -99999 -99999 -99999 -99999 -99999 -99999 -99999 -99999 -99999 -99999 -99999 -99999 2063.26513671875 2061.343505859375 2049.33251953125 2040.1907958984375 2032.19189453125 2024.8880615234375 2018.015625 2011.1361083984375 2004.37939453125 1978.9178466796875 1975.519287109375 1971.39306640625 1962.061767578125 1945.5467529296875 1937 1937 1931.7686767578125 1921.7994384765625 1914.204345703125 1908.8282470703125 1905.73046875 1907.8258056640625 1897.723876953125 1895.0067138671875 1893.2763671875 1893.8212890625 1892.6671142578125 1891.014892578125 1890.08203125 1887.5526123046875 1882.2034912109375 1874.0023193359375 1871.989013671875 1873.369873046875 1876.61669921875 1871.3974609375 1869.678955078125 1865.494873046875 1863.6749267578125 1863.202880859375 1863.5623779296875 1864.50537109375 1866.057861328125 1867.6787109375 1869.0321044921875 1870.1649169921875 1871.4210205078125 1874.1451416015625 1873.501953125 1870.757568359375 1869.2503662109375 1868.464599609375 1868.0208740234375 1868.9686279296875 1872.6231689453125 1881.74853515625 1892.4000244140625 1893 1893 1902.56396484375 1920.96826171875 1926.3570556640625 1909.095458984375 1915.14697265625 1922.6114501953125 1924 1924 1924 1937.7633056640625 1943 1943 1953.296142578125 1971.1861572265625 1975 1975 1980.9727783203125 1994.535888671875 2003.9884033203125 2002.7799072265625 1996.3013916015625 1980.89208984375 1983.3150634765625 1998.6424560546875 2022.181396484375 2037.23193359375 2039.72216796875 2041.8172607421875 2051.741455078125 2068.555419921875 2073.97412109375 2077.414794921875 2081.8427734375 2087.505859375 2095.178466796875 2097.182861328125 2099.406982421875 2111.799072265625 2123.41064453125 2128.6328125 2133.25439453125 2138.90625 2145.330810546875 2150.093994140625 2149 2149 2132.6181640625 2130.5576171875 2129.86083984375 2082.556884765625 -99999 -99999 -99999 -99999 -99999 -99999 -99999 -99999 -99999 -99999 -99999 -99999 -99999 -99999 -99999 -99999 -99999 -99999 -99999 -99999 -99999 -99999 -99999 -99999 -99999 -99999 -99999
-99999 -99999 -99999 -99999 -99999 -99999 -99999 -99999 -99999 -99999 -99999 -99999 -99999 -99999 -99999 -99999 -99999 -99999 -99999 -99999 -99999 -99999 -99999 2049.4921875 2074.2509765625 2057.64306640625 2045.8408203125 2036.0263671875 2027.07568359375 2018.6783447265625 2010.251220703125 2001.448486328125 1992.6021728515625 1981.39306640625 1968.2498779296875 1970.9281005859375 1959.3408203125 1943.98046875 1930.918701171875 1935.5177001953125 1926.6024169921875 1918.8154296875 1912.1612548828125 1906.6602783203125 1902.39208984375 1903.93603515625 1897.3997802734375 1892.6318359375 1890.046630859375 1888.72705078125 1888.8001708984375 1888.866455078125 1884.41845703125 1889.8658447265625 1877.5352783203125 1861.4417724609375 1861.214111328125 1862.962158203125 1864.6016845703125 1865.359375 1871 1859.3603515625 1856.7896728515625 1857.006591796875 1858.2332763671875 1859.986083984375 1861.66162109375 1863.052490234375 1864.1041259765625 1864.8447265625 1865.4888916015625 1873.074951171875 1869.6868896484375 1867.422607421875 1865.6165771484375 1864.1572265625 1863.080322265625 1862.8582763671875 1864.6883544921875 1872.1190185546875 1892.935546875 1890.789794921875 1891.9725341796875 1907.8712158203125 1907.7769775390625 1907.2392578125 1904.462646484375 1912.0863037109375 1924 1923.998046875 1924 1913.6265869140625 1929.0311279296875 1942.770751953125 1940.58837890625 1947.6737060546875 1964.8360595703125 1975 1974.014404296875 1972.3446044921875 1990.97314453125 2000.5596923828125 1991.1033935546875 1989.1553955078125 1987.284423828125 1992.0035400390625 2001.4263916015625 2013.757080078125 2025.1981201171875 2032.6365966796875 2039.7061767578125 2049.1572265625 2061.587158203125 2069.57421875 2070.3349609375 2071.11279296875 2076.7666015625 2094.8115234375 2097.89013671875 2089.72607421875 2110.35205078125 2124.6728515625 2126.32958984375 2126.672607421875 2129.5810546875 2141.418701171875 2140.72900390625 2139.2978515625 2126.112548828125 2123.304931640625 2128.716064453125 2089.868408203125 -99999 -99999 -99999 -99999 -99999 -99999 -99999 -99999 -99999 -99999 -99999 -99999 -99999 -99999 -99999 -99999 -99999 -99999 -99999 -99999 -99999 -99999 -99999 -99999 -99999 -99999 -99999 -99999
-99999 -99999 -99999 -99999 -99999 -99999 -99999 -99999 -99999 -99999 -99999 -99999 -99999 -99999 -99999 -99999 -99999 -99999 -99999 -99999 -99999 -99999 2035.7147216796875 2067.245849609375 2063.802001953125 2051.736572265625 2040.660400390625 2030.7003173828125 2020.9993896484375 2011.5716552734375 2002.2349853515625 1992.8087158203125 1983.31201171875 1972.94580078125 1960.994140625 1955.5570068359375 1937.1485595703125 1932.017822265625 1910.0567626953125 1921.4171142578125 1920.0489501953125 1914.6551513671875 1908.8792724609375 1903.3746337890625 1898.3204345703125 1894.3162841796875 1891.1265869140625 1887.220458984375 1884.150634765625 1882.11767578125 1880.9808349609375 1879.4521484375 1874.0384521484375 1861.119384765625 1862.221923828125 1850.103271484375 1850 1852.5205078125 1853.8726806640625 1855.5697021484375 1856.7008056640625 1850.7149658203125 1848.22705078125 1851.4539794921875 1853.9312744140625 1855.99462890625 1857.5789794921875 1858.6600341796875 1859.2652587890625 1859.10205078125 1856.474365234375 1861.3680419921875 1864.0096435546875 1863.3094482421875 1861.7508544921875 1859.96923828125 1858.233154296875 1856.6953125 1855.8919677734375 1857.2445068359375 1873.8367919921875 1878.002685546875 1881.72607421875 1895.18310546875 1885.8441162109375 1880.867431640625 1879.7691650390625 1894.184814453125 1902.9241943359375 1903.3812255859375 1906.1221923828125 1908.312744140625 1914.3492431640625 1929.77197265625 1928.52392578125 1921.7320556640625 1938.528564453125 1959.8424072265625 1954.349609375 1944.690673828125 1959.2607421875 1970.7215576171875 1976.11865234375 1980.637451171875 1989.861328125 1997.4176025390625 2003.6981201171875 2006.745361328125 2020.3236083984375 2028.9752197265625 2036.9788818359375 2045.1962890625 2053.5380859375 2059.6572265625 2058.673583984375 2053.0498046875 2061.156494140625 2075.24365234375 2079.262939453125 2088.603515625 2102.124267578125 2113.640869140625 2118.7490234375 2123.49658203125 2125.888427734375 2127.043212890625 2128.488037109375 2119.48779296875 2115.866455078125 2121.08203125 2096.366943359375 2092.495849609375 -99999 -99999 -99999 -99999 -99999 -99999 -99999 -99999 -99999 -99999 -99999 -99999 -99999 -99999 -99999 -99999 -99999 -99999 -99999 -99999 -99999 -99999 -99999 -99999 -99999 -99999 -99999 -99999
-99999 -99999 -99999 -99999 -99999 -99999 -99999 -99999 -99999 -99999 -99999 -99999 -99999 -99999 -99999 -99999 -99999 -99999 -99999 -99999 -99999 -99999 2061.8388671875 2063.361083984375 2057.132568359375 2046.064697265625 2034.9166259765625 2024.6070556640625 2014.269287109375 2004.2841796875 1994.480712890625 1984.5916748046875 1974.585205078125 1963.740478515625 1952.177734375 1942.4749755859375 1934.29443359375 1921.8526611328125 1911.3017578125 1909.1083984375 1912.8643798828125 1909.95361328125 1904.929443359375 1899.9453125 1895.5889892578125 1890.7440185546875 1885.6263427734375 1881.29541015625 1877.791015625 1875.2681884765625 1873.637939453125 1871.9354248046875 1867.4910888671875 1858.207763671875 1852.3804931640625 1850 1850 1849.8125 1848.825439453125 1848.0406494140625 1848.1854248046875 1848.0340576171875 1849.209716796875 1850.9759521484375 1851 1851.6522216796875 1853.94189453125 1855.4488525390625 1856.07275390625 1856.000244140625 1855.6046142578125 1856.9520263671875 1859.435791015625 1859.3701171875 1857.92578125 1855.9063720703125 1853.8582763671875 1851.3515625 1852.4805908203125 1856.5604248046875 1862.00390625 1863.735107421875 1862.64794921875 1877.8861083984375 1878 1876.4749755859375 1877.7789306640625 1883.954833984375 1890.2293701171875 1897.1134033203125 1901.9862060546875 1907.7989501953125 1917.1683349609375 1960.90625 1924.73193359375 1921.319091796875 1932.5147705078125 1942.742919921875 1938.29638671875 1941.94287109375 1951.305419921875 1959.973388671875 1967.795166015625 1976.0675048828125 1989.7401123046875 2006.0006103515625 2006 2006.7919921875 2019.9476318359375 2026.8031005859375 2033.3868408203125 2040.3251953125 2047.11572265625 2051.73291015625 2049.514892578125 2047.111328125 2057.29833984375 2064.888427734375 2076.274658203125 2088.000244140625 2096.95361328125 2104.0927734375 2110.40478515625 2113.72998046875 2115.4140625 2117.565673828125 2112.645263671875 2108.269287109375 2113.282470703125 2101.70654296875 2071.61669921875 -99999 -99999 -99999 -99999 -99999 -99999 -99999 -99999 -99999 -99999 -99999 -99999 -99999 -99999 -99999 -99999 -99999 -99999 -99999 -99999 -99999 -99999 -99999 -99999 -99999 -99999 -99999 -99999 -99999
-99999 -99999 -99999 -99999 -99999 -99999 -99999 -99999 -99999 -99999 -99999 -99999 -99999 -99999 -99999 -99999 -99999 -99999 -99999 -99999 -99999 2061.370849609375 2061.058837890625 2061.3193359375 2052.525634765625 2040.6346435546875 2028.8033447265625 2018.213134765625 2007.225341796875 1996.87353515625 1986.717529296875 1976.50390625 1966.2222900390625 1954.764404296875 1943.246826171875 1937 1936.457763671875 1928.360107421875 1920.1927490234375 1913.87255859375 1909.398193359375 1908.0040283203125 1900.7220458984375 1896.1712646484375 1894 1888.9537353515625 1880.582763671875 1875.01708984375 1870.9906005859375 1868.1533203125 1866.40380859375 1864.9805908203125 1862.177978515625 1856.8448486328125 1853.27001953125 1850.7296142578125 1850 1849.74560546875 1848.900390625 1847.423583984375 1845.59912109375 1844.9161376953125 1846.5804443359375 1849.9937744140625 1851 1851 1853.2857666015625 1855.999267578125 1856 1856 1855.9710693359375 1854.8529052734375 1855.50341796875 1855.8216552734375 1854.4010009765625 1852.4102783203125 1851 1851 1851.6539306640625 1856.7445068359375 1858 1858 1858.590087890625 1875.0494384765625 1875.0833740234375 1872.8656005859375 1874.6290283203125 1878.40234375 1883.0396728515625 1889.3255615234375 1896.0474853515625 1903.7508544921875 1916.6103515625 1981.6004638671875 1960.0743408203125 1919.1563720703125 1935.78857421875 1938.8741455078125 1935.33154296875 1939.310791015625 1946.076171875 1953.7008056640625 1961.993896484375 1971.881591796875 1984.17138671875 2002.195556640625 2006 2011.8267822265625 2021.218017578125 2025.3211669921875 2028.77392578125 2035.0926513671875 2041.6695556640625 2046.605224609375 2042.8499755859375 2045.2730712890625 2051.2880859375 2061.485595703125 2073.5751953125 2083.01171875 2090.568359375 2096.89404296875 2100.958984375 2103.82275390625 2107.042236328125 2105.582763671875 2100.520263671875 2105.333251953125 2105.163330078125 2063.26904296875 -99999 -99999 -99999 -99999 -99999 -99999 -99999 -99999 -99999 -99999 -99999 -99999 -99999 -99999 -99999 -99999 -99999 -99999 -99999 -99999 -99999 -99999 -99999 -99999 -99999 -99999 -99999 -99999 -99999 -99999
-99999 -99999 -99999 -99999 -99999 -99999 -99999 -99999 -99999 -99999 -99999 -99999 -99999 -99999 -99999 -99999 -99999 -99999 -99999 -99999 2056.448974609375 2060.342041015625 2058.657958984375 2056.041748046875 2048.634033203125 2029.16650390625 2023.6888427734375 2012.29931640625 2000.0640869140625 1988.900146484375 1978.5003662109375 1968.5638427734375 1958.1998291015625 1946.155029296875 1935.1690673828125 1934.94677734375 1937 1927.186279296875 1917.9210205078125 1910.613525390625 1904.454345703125 1898.9554443359375 1893.269287109375 1890.75 1894 1891.7510986328125 1875.8355712890625 1867.7589111328125 1863.40576171875 1860.7642822265625 1859.271728515625 1857.872802734375 1856.7183837890625 1853.3974609375 1851.405517578125 1850.0758056640625 1849.45556640625 1849.9373779296875 1848.9649658203125 1846.1866455078125 1842.1640625 1840.299560546875 1841.0938720703125 1842.7366943359375 1844.5361328125 1847.0430908203125 1850.578369140625 1854.826904296875 1856 1854.19482421875 1851.3714599609375 1851.4716796875 1851.771728515625 1854 1853.232421875 1849.223876953125 1842.244873046875 1839.580078125 1842.949462890625 1853.927490234375 1858 1858 1858 1869.741455078125 1868.292236328125 1867.4617919921875 1869.1455078125 1872.24267578125 1876.391357421875 1881.9029541015625 1888.58935546875 1896.811767578125 1910.7010498046875 1925.772705078125 1933.6483154296875 1922.112060546875 1933.6868896484375 1937.9202880859375 1931.6964111328125 1934.8248291015625 1940.7581787109375 1947.9713134765625 1956.1549072265625 1965.8399658203125 1978.050048828125 1997.46240234375 2007.36083984375 2011.17919921875 2016.07177734375 2019.826904296875 2021.82080078125 2026.67431640625 2034.12109375 2039.7359619140625 2037.0379638671875 2040.4542236328125 2046.8182373046875 2058.681640625 2069.386962890625 2077.21240234375 2083.944580078125 2088.6806640625 2092.185302734375 2096.16650390625 2097.94873046875 2092.56103515625 2097.22314453125 2104.9580078125 2069.46533203125 -99999 -99999 -99999 -99999 -99999 -99999 -99999 -99999 -99999 -99999 -99999 -99999 -99999 -99999 -99999 -99999 -99999 -99999 -99999 -99999 -99999 -99999 -99999 -99999 -99999 -99999 -99999 -99999 -99999 -99999 -99999
-99999 -99999 -99999 -99999 -99999 -99999 -99999 -99999 -99999 -99999 -99999 -99999 -99999 -99999 -99999 -99999 -99999 -99999 -99999 -99999 2060.2451171875 2058.117431640625 2054.47265625 2048.824951171875 2041.0107421875 2029.7373046875 2020.16162109375 2001.5692138671875 1991.848388671875 1979.0743408203125 1969.5367431640625 1960.6903076171875 1951.6121826171875 1942.6322021484375 1927.3599853515625 1919.203369140625 1928.2061767578125 1920.2388916015625 1912.4156494140625 1905.10107421875 1898.37841796875 1892.131103515625 1886.0374755859375 1878.1612548828125 1878.8790283203125 1884.2022705078125 1872.1842041015625 1856.321044921875 1854.7198486328125 1854.1678466796875 1852.706298828125 1848.7314453125 1849.406005859375 1849.60595703125 1848.657470703125 1846.8790283203125 1845.133544921875 1844.385009765625 1845.2659912109375 1843.0677490234375 1836.76806640625 1834.939697265625 1834.7725830078125 1835.65966796875 1836.8096923828125 1838.0028076171875 1843.0560302734375 1846.0908203125 1847.6259765625 1841.299560546875 1834.9462890625 1835.244384765625 1835.2408447265625 1838.0633544921875 1842.1771240234375 1839.22607421875 1829.8818359375 1827.967041015625 1829.420654296875 1852.2359619140625 1851.113525390625 1848.96923828125 1851.81396484375 1860.2548828125 1860.9644775390625 1860.96923828125 1862.732421875 1865.63232421875 1869.6165771484375 1874.43701171875 1879.715087890625 1885.9093017578125 1899.26318359375 1898.6402587890625 1911.9681396484375 1918.5316162109375 1925.46044921875 1932.550537109375 1925.642578125 1929.2474365234375 1935.2001953125 1942.3717041015625 1950.1239013671875 1958.693603515625 1969.75390625 1990.936767578125 1999.9129638671875 2005.8453369140625 2011.26171875 2014.63818359375 2015.2696533203125 2015.20703125 2020.4359130859375 2027.8314208984375 2030.756103515625 2034.708740234375 2042.6617431640625 2055.454345703125 2064.1611328125 2071.250244140625 2076.54931640625 2080.733154296875 2085.216064453125 2089.415283203125 2084.400634765625 2088.93359375 2097.953857421875 2074.96142578125 2086.970458984375 -99999 -99999 -99999 -99999 -99999 -99999 -99999 -99999 -99999 -99999 -99999 -99999 -99999 -99999 -99999 -99999 -99999 -99999 -99999 -99999 -99999 -99999 -99999 -99999 -99999 -99999 -99999 -99999 -99999 -99999 -99999
-99999 -99999 -99999 -99999 -99999 -99999 -99999 -99999 -99999 -99999 -99999 -99999 -99999 -99999 -99999 -99999 -99999 -99999 -99999 2060.421875 2058.61767578125 2054.811279296875 2049.037841796875 2041.707275390625 2033.7733154296875 2022.3228759765625 2010.602294921875 1999.0648193359375 1985.054443359375 1960.24560546875 1956.4703369140625 1955.4820556640625 1956.96337890625 1939.3538818359375 1919.8797607421875 1916.0010986328125 1918.793212890625 1912.3946533203125 1905.4669189453125 1898.6844482421875 1892.0914306640625 1885.885498046875 1879.7564697265625 1872.43408203125 1869.4932861328125 1865.7886962890625 1858.9969482421875 1851.9033203125 1850.5186767578125 1850.37451171875 1847.5501708984375 1844.0550537109375 1845.7918701171875 1846.5367431640625 1845.1292724609375 1841.7320556640625 1838.4725341796875 1836.2427978515625 1834.390869140625 1832.095703125 1828.6640625 1826.14306640625 1826.9466552734375 1830.68505859375 1831 1831 1829.54638671875 1826.005126953125 1824.5341796875 1824.5086669921875 1824.697021484375 1823 1823 1823 1825.5909423828125 1825.391357421875 1825.9710693359375 1826 1826.7432861328125 1830.7359619140625 1835.3238525390625 1835.8424072265625 1834.8939208984375 1850.072998046875 1853.4224853515625 1853.8179931640625 1855.7142333984375 1859.0050048828125 1863.065185546875 1867.482421875 1869.8526611328125 1868.013427734375 1881.2216796875 1896.692138671875 1904.4241943359375 1909.6453857421875 1914.8450927734375 1919.0947265625 1918.756591796875 1923.5552978515625 1930.058837890625 1936.9913330078125 1943.9322509765625 1950.600830078125 1958.55419921875 1978.09375 1989.6573486328125 1998.7994384765625 2005.946533203125 2010.5343017578125 2009.9715576171875 2010.808837890625 2015.546630859375 2019.7962646484375 2024.2940673828125 2028.7042236328125 2038.3511962890625 2051.462890625 2058.698486328125 2064.49560546875 2069.359130859375 2074.234619140625 2079.365966796875 2076.064697265625 2080.425537109375 2089.53564453125 2079.31396484375 2062.175048828125 -99999 -99999 -99999 -99999 -99999 -99999 -99999 -99999 -99999 -99999 -99999 -99999 -99999 -99999 -99999 -99999 -99999 -99999 -99999 -99999 -99999 -99999 -99999 -99999 -99999 -99999 -99999 -99999 -99999 -99999 -99999 -99999
-99999 -99999 -99999 -99999 -99999 -99999 -99999 -99999 -99999 -99999 -99999 -99999 -99999 -99999 -99999 -99999 -99999 -99999 2060.385009765625 2060.05517578125 2057.195068359375 2050.444580078125 2041.017578125 2034.730712890625 2027.640625 2014.7955322265625 2003.288330078125 1992.0303955078125 1977.770751953125 1962.4376220703125 1957 1957 1957 1935.4246826171875 1913 1914.0648193359375 1912.1976318359375 1905.0894775390625 1898.235107421875 1891.8018798828125 1885.4892578125 1879.5443115234375 1874.0113525390625 1868.87646484375 1863.6143798828125 1858.5086669921875 1853.953857421875 1850.18115234375 1848.7373046875 1849.1932373046875 1845.719970703125 1844 1844.114990234375 1844.14013671875 1841.4776611328125 1835.385986328125 1830.40087890625 1826.8790283203125 1824.3521728515625 1822.3419189453125 1819.6414794921875 1817.4736328125 1818.0120849609375 1824.2222900390625 1831 1829.867431640625 1825.2078857421875 1821.73681640625 1819.5594482421875 1818.44384765625 1818.7772216796875 1821.907958984375 1823 1823 1823.2640380859375 1824.802734375 1825.9007568359375 1824.958251953125 1821.82666015625 1823.6871337890625 1829.7833251953125 1832 1836.7730712890625 1842.5513916015625 1845.16845703125 1846.597900390625 1847.7469482421875 1852.7266845703125 1859.2147216796875 1864.506103515625 1868 1868.7684326171875 1881.8099365234375 1893.6485595703125 1897.9786376953125 1901.572998046875 1905.9366455078125 1910.268310546875 1914.2841796875 1919.0577392578125 1926.0386962890625 1932.6788330078125 1938.02685546875 1941.360107421875 1948.571044921875 1964.3809814453125 1977.295166015625 1989.296630859375 2000.089111328125 2007.855224609375 2007.8951416015625 2010.0184326171875 2013.4432373046875 2017.2437744140625 2020.4515380859375 2022.8741455078125 2033.2886962890625 2046.962158203125 2052.447021484375 2058.02490234375 2063.21728515625 2068.56494140625 2067.588623046875 2071.69189453125 2080.932373046875 2081.902587890625 2046.6866455078125 -99999 -99999 -99999 -99999 -99999 -99999 -99999 -99999 -99999 -99999 -99999 -99999 -99999 -99999 -99999 -99999 -99999 -99999 -99999 -99999 -99999 -99999 -99999 -99999 -99999 -99999 -99999 -99999 -99999 -99999 -99999 -99999 -99999
-99999 -99999 -99999 -99999 -99999 -99999 -99999 -99999 -99999 -99999 -99999 -99999 -99999 -99999 -99999 -99999 -99999 2060.109375 2060.04833984375 2060.01953125 2059.702880859375 2042.6185302734375 2029.132568359375 2028.761962890625 2029.9102783203125 2000.1011962890625 1996.81591796875 1987.2579345703125 1970.15625 1957.327392578125 1957 1951.9580078125 1946.4302978515625 1923.4476318359375 1913.0321044921875 1913.004150390625 1908.4075927734375 1897.785400390625 1890.47509765625 1884.3096923828125 1878.629638671875 1873.23291015625 1868.0177001953125 1863.9990234375 1856.653564453125 1852.9063720703125 1849.82177734375 1847.332763671875 1845.78857421875 1845.9456787109375 1847.7432861328125 1846.064453125 1844.2615966796875 1843.66455078125 1839.452392578125 1827.6749267578125 1819.8607177734375 1816.484375 1814.821533203125 1813.2120361328125 1810.671142578125 1808.3416748046875 1807.885009765625 1814.9814453125 1828.173583984375 1823.670166015625 1819.777099609375 1816.3013916015625 1813.59619140625 1811.7174072265625 1810.9134521484375 1812.2147216796875 1822.00830078125 1813.2288818359375 1816.5926513671875 1821.8009033203125 1825.984619140625 1823.541259765625 1814.0335693359375 1815.7547607421875 1826.470458984375 1831.20703125 1831.8717041015625 1834.7943115234375 1837.292236328125 1838.9456787109375 1840.54345703125 1852.4716796875 1861.634521484375 1868 1868 1870.4794921875 1884.5802001953125 1894.6378173828125 1892.5946044921875 1892.9779052734375 1897.373291015625 1903.401123046875 1909.828369140625 1916.068603515625 1928.63134765625 1932.83056640625 1937.994873046875 1942.225830078125 1944.95263671875 1954.837158203125 1965.5023193359375 1977.487060546875 1992.6646728515625 2003.52734375 2005.0240478515625 2007.6466064453125 2010.97314453125 2014.64453125 2017.799560546875 2019.6712646484375 2022.438720703125 2042.4222412109375 2046.6856689453125 2052.178955078125 2057.717041015625 2059.065673828125 2062.71875 2072.11767578125 2081.417236328125 2049.94677734375 -99999 -99999 -99999 -99999 -99999 -99999 -99999 -99999 -99999 -99999 -99999 -99999 -99999 -99999 -99999 -99999 -99999 -99999 -99999 -99999 -99999 -99999 -99999 -99999 -99999 -99999 -99999 -99999 -99999 -99999 -99999 -99999 -99999 -99999
-99999 -99999 -99999 -99999 -99999 -99999 -99999 -99999 -99999 -99999 -99999 -99999 -99999 -99999 -99999 -99999 -99999 2054.89111328125 2051.229248046875 2047.9561767578125 2040.8482666015625 2032.116943359375 2023.1668701171875 2014.9132080078125 2007.3702392578125 1998.2779541015625 1988.9556884765625 1981.030517578125 1953.4561767578125 1943.9337158203125 1946.45751953125 1939.8121337890625 1932.7908935546875 1917.519287109375 1911.3818359375 1910.533447265625 1910.426513671875 1889.5240478515625 1880.5687255859375 1876.1177978515625 1872.059814453125 1867.831298828125 1862.47802734375 1852.223388671875 1851.0360107421875 1849.1275634765625 1846.6939697265625 1844.3199462890625 1842.2210693359375 1841.214111328125 1842.9420166015625 1839.67822265625 1837.136474609375 1833.1878662109375 1827.1881103515625 1815.449462890625 1804.3837890625 1806.694091796875 1806.1571044921875 1804.6468505859375 1802.2529296875 1799.2041015625 1795.790283203125 1803.2435302734375 1813.802001953125 1814.4696044921875 1812.6934814453125 1810.0814208984375 1807.1534423828125 1804.6865234375 1802.8228759765625 1800.901611328125 1793.22802734375 1803.3597412109375 1808.64892578125 1813.1795654296875 1817.647216796875 1821.5023193359375 1799.3599853515625 1805.4703369140625 1822.0291748046875 1823.792236328125 1824.0340576171875 1827.1280517578125 1830.0001220703125 1831.904296875 1833.2186279296875 1846.1341552734375 1848.712890625 1857.044921875 1861.552734375 1869.7252197265625 1883.348388671875 1894.85302734375 1895.500732421875 1876.33154296875 1890.304443359375 1900.8837890625 1904.629150390625 1913.267333984375 1933.4091796875 1930.5091552734375 1925.249267578125 1935.517822265625 1941.370361328125 1947.6807861328125 1954.8331298828125 1962.566162109375 1981.7628173828125 1994.9859619140625 1999.87890625 2004.146484375 2008.13037109375 2012.1427001953125 2015.1829833984375 2017.4796142578125 2026.015625 2035.6826171875 2041.1563720703125 2046.83642578125 2050.486572265625 2053.4912109375 2063.07666015625 2075.03955078125 2054.564453125 -99999 -99999 -99999 -99999 -99999 -99999 -99999 -99999 -99999 -99999 -99999 -99999 -99999 -99999 -99999 -99999 -99999 -99999 -99999 -99999 -99999 -99999 -99999 -99999 -99999 -99999 -99999 -99999 -99999 -99999 -99999 -99999 -99999 -99999 -99999
-99999 -99999 -99999 -99999 -99999 -99999 -99999 -99999 -99999 -99999 -99999 -99999 -99999 -99999 -99999 -99999 2047.454833984375 2044.218994140625 2039.63818359375 2034.2125244140625 2027.3187255859375 2019.5445556640625 2011.72802734375 2003.0596923828125 1994.01806640625 1986.255615234375 1978.62890625 1968.83837890625 1951.6298828125 1933.3837890625 1926.314453125 1927.427978515625 1925.2947998046875 1910.844970703125 1906.1121826171875 1905.2156982421875 1900.5335693359375 1884.361328125 1871.1690673828125 1870.809326171875 1869.15576171875 1865.3382568359375 1857.788818359375 1848.0244140625 1847.069580078125 1846.19677734375 1843.805908203125 1841.2100830078125 1838.503173828125 1834.6097412109375 1834.210205078125 1831.603271484375 1827.5345458984375 1822.55615234375 1816.70654296875 1809.6778564453125 1800.8719482421875 1798.697509765625 1797.440185546875 1796.4306640625 1795.255615234375 1793.0582275390625 1790.005859375 1796.607177734375 1804.12353515625 1806.0740966796875 1805.353759765625 1803.3553466796875 1800.4415283203125 1797.63818359375 1795.0380859375 1791.1414794921875 1788.72119140625 1796.487060546875 1800.7239990234375 1804.0938720703125 1807.4058837890625 1809.4453125 1808.8724365234375 1802.4912109375 1806.3038330078125 1812.15625 1814.4622802734375 1819.510498046875 1823.8099365234375 1826.03759765625 1824.15380859375 1838.83740234375 1844.5897216796875 1849.398681640625 1855.334228515625 1863.4002685546875 1872.8538818359375 1879.1756591796875 1879.63671875 1879.6953125 1884.3232421875 1895.0731201171875 1897.7508544921875 1899.17822265625 1908.382080078125 1922 1922 1927.1015625 1938.4901123046875 1945.2891845703125 1947.6226806640625 1948.3338623046875 1972.5767822265625 1988.6571044921875 1994.1734619140625 1999.6148681640625 2005.2041015625 2010.36376953125 2012.6094970703125 2013.1683349609375 2018.3211669921875 2029.5836181640625 2035.7181396484375 2041.1075439453125 2043.9913330078125 2053.774658203125 2066.043212890625 2058.020263671875 2054.136962890625 -99999 -99999 -99999 -99999 -99999 -99999 -99999 -99999 -99999 -99999 -99999 -99999 -99999 -99999 -99999 -99999 -99999 -99999 -99999 -99999 -99999 -99999 -99999 -99999 -99999 -99999 -99999 -99999 -99999 -99999 -99999 -99999 -99999 -99999 -99999
-99999 -99999 -99999 -99999 -99999 -99999 -99999 -99999 -99999 -99999 -99999 -99999 -99999 -99999 -99999 2043.8280029296875 2042.4852294921875 2033.05078125 2027.1290283203125 2021.3494873046875 2014.814697265625 2007.367919921875 1999.7125244140625 1991.1331787109375 1981.79931640625 1973.501708984375 1967.6700439453125 1957.9908447265625 1950.3690185546875 1938.088623046875 1928.5645751953125 1925.3721923828125 1914.776123046875 1901.7542724609375 1899.395751953125 1900.7110595703125 1895.7025146484375 1881.5419921875 1871.97802734375 1870.4459228515625 1869.6826171875 1867.4114990234375 1853.7012939453125 1847 1846.0673828125 1844.0455322265625 1840.86083984375 1837.9833984375 1835.81884765625 1831.3116455078125 1826.898681640625 1823.184814453125 1818.779052734375 1813.9656982421875 1808.7178955078125 1802.63037109375 1795.544677734375 1789.5115966796875 1786.339599609375 1788.7188720703125 1793 1793 1791.192138671875 1792.4327392578125 1796.982177734375 1798.226318359375 1797.9327392578125 1796.56005859375 1793.7672119140625 1790.928466796875 1788.591796875 1786.7320556640625 1787.60498046875 1791.575927734375 1793.2125244140625 1794.7120361328125 1796.514404296875 1798.4786376953125 1802.69091796875 1804.4888916015625 1801.082275390625 1801.832763671875 1805 1813.5069580078125 1821.2401123046875 1823.0279541015625 1823.3643798828125 1839.143798828125 1840.8226318359375 1843.1541748046875 1847.903076171875 1855.0992431640625 1862.8096923828125 1868.3714599609375 1872.1861572265625 1874.8692626953125 1878.741455078125 1886.1414794921875 1893.6490478515625 1902.1383056640625 1914.3515625 1922 1921.8184814453125 1923.8138427734375 1933.077880859375 1948 1948 1948.0428466796875 1965.130126953125 1986.672607421875 1989.5718994140625 1989.176025390625 2005.4775390625 2010.0849609375 2008.544921875 2007.536865234375 2018.2860107421875 2024.433837890625 2030.5657958984375 2034.183837890625 2044.177490234375 2056.81884765625 2059.720703125 2032.68408203125 -99999 -99999 -99999 -99999 -99999 -99999 -99999 -99999 -99999 -99999 -99999 -99999 -99999 -99999 -99999 -99999 -99999 -99999 -99999 -99999 -99999 -99999 -99999 -99999 -99999 -99999 -99999 -99999 -99999 -99999 -99999 -99999 -99999 -99999 -99999 -99999
-99999 -99999 -99999 -99999 -99999 -99999 -99999 -99999 -99999 -99999 -99999 -99999 -99999 -99999 -99999 2042.9541015625 2039.8258056640625 2020.60498046875 2013.7205810546875 2008.6944580078125 2002.9027099609375 1995.7872314453125 1988.0142822265625 1979.2113037109375 1969.3521728515625 1960.344482421875 1957.38134765625 1950.7550048828125 1943.4156494140625 1934.8594970703125 1926.757080078125 1918.8009033203125 1910.7432861328125 1903.1929931640625 1898.2196044921875 1895.7977294921875 1893.6275634765625 1877.1639404296875 1871.0096435546875 1867.1256103515625 1863.154541015625 1857.593505859375 1848.267822265625 1847 1846.9189453125 1844.02099609375 1837.9205322265625 1834.3720703125 1833.5469970703125 1825.7021484375 1819.5732421875 1815.1805419921875 1810.7403564453125 1806.1871337890625 1801.3377685546875 1795.6370849609375 1788.9830322265625 1782.0242919921875 1776.2542724609375 1777.9664306640625 1786.898681640625 1789.52197265625 1792.9986572265625 1789.068603515625 1791.16015625 1790.301513671875 1789.7581787109375 1789.626708984375 1787.524658203125 1786.156494140625 1783.6119384765625 1783.42431640625 1786.4705810546875 1786.5748291015625 1785.4669189453125 1785.0831298828125 1785.0262451171875 1785.753173828125 1792.1263427734375 1796.4713134765625 1792.8687744140625 1794.7493896484375 1804.3201904296875 1811.1953125 1816.8675537109375 1823 1824.05908203125 1839.206787109375 1837.3043212890625 1836.4739990234375 1839.380859375 1846.08056640625 1853.7000732421875 1859.7874755859375 1864.458251953125 1868.1893310546875 1872.3841552734375 1878.9224853515625 1887.1219482421875 1897.9013671875 1920.151123046875 1920.94970703125 1919.54150390625 1924.138916015625 1940.6759033203125 1947.4256591796875 1949.257080078125 1956.67626953125 1965.7747802734375 1975.036376953125 1984.069580078125 1991.41015625 1996.90185546875 1999.722412109375 2001.2506103515625 2007.090087890625 2013.7537841796875 2019.6246337890625 2024.2178955078125 2034.26953125 2047.3426513671875 2058.546875 2031.1087646484375 -99999 -99999 -99999 -99999 -99999 -99999 -99999 -99999 -99999 -99999 -99999 -99999 -99999 -99999 -99999 -99999 -99999 -99999 -99999 -99999 -99999 -99999 -99999 -99999 -99999 -99999 -99999 -99999 -99999 -99999 -99999 -99999 -99999 -99999 -99999 -99999 -99999
-99999 -99999 -99999 -99999 -99999 -99999 -99999 -99999 -99999 -99999 -99999 -99999 -99999 -99999 2042.2841796875 2038.067138671875 2031.1422119140625 2004.2674560546875 1998.07177734375 1995.9580078125 1991.68212890625 1985.3160400390625 1977.1558837890625 1967.4072265625 1955.9566650390625 1941.9320068359375 1948.5062255859375 1945.265869140625 1938.0301513671875 1928.4898681640625 1921.5421142578125 1913.90869140625 1906.395263671875 1899.86279296875 1893.851806640625 1888.2086181640625 1882.4013671875 1875.386474609375 1867.5264892578125 1859.421142578125 1854.6214599609375 1849.485107421875 1841.5709228515625 1837.005615234375 1840.3924560546875 1844.2110595703125 1825.4527587890625 1820.06689453125 1829.952392578125 1818.82666015625 1811.6580810546875 1807.26318359375 1803.11083984375 1798.953125 1794.5133056640625 1789.1212158203125 1782.540283203125 1775.16943359375 1765.119140625 1765.77099609375 1772.3428955078125 1776.8736572265625 1780.21923828125 1782.8216552734375 1785.7130126953125 1779.1290283203125 1775.0277099609375 1783.963134765625 1773.6195068359375 1768.614013671875 1768.9742431640625 1772.836669921875 1778.5164794921875 1779.391357421875 1776.7713623046875 1775.093017578125 1773.2862548828125 1770.2935791015625 1775.9903564453125 1785.989013671875 1782.3345947265625 1779.6414794921875 1801.3062744140625 1802.184814453125 1801.1319580078125 1806.5941162109375 1822.722412109375 1835.2913818359375 1836.1361083984375 1829.077880859375 1829.3663330078125 1835.9964599609375 1845.2799072265625 1852.13427734375 1857.0701904296875 1861.0361328125 1865.787109375 1872.381103515625 1878.961181640625 1887.3175048828125 1907.462158203125 1914.12548828125 1912.900634765625 1914.8377685546875 1933.8482666015625 1938.69482421875 1945.6873779296875 1953.2923583984375 1961.1905517578125 1969.665771484375 1978.117919921875 1984.9254150390625 1988.9310302734375 1991.7188720703125 1996.795166015625 2003.0155029296875 2008.8739013671875 2014.1915283203125 2024.044921875 2037.59765625 2052.13916015625 2034.934814453125 -99999 -99999 -99999 -99999 -99999 -99999 -99999 -99999 -99999 -99999 -99999 -99999 -99999 -99999 -99999 -99999 -99999 -99999 -99999 -99999 -99999 -99999 -99999 -99999 -99999 -99999 -99999 -99999 -99999 -99999 -99999 -99999 -99999 -99999 -99999 -99999 -99999 -99999
-99999 -99999 -99999 -99999 -99999 -99999 -99999 -99999 -99999 -99999 -99999 -99999 -99999 2043.672119140625 2037.7667236328125 2027.5745849609375 2013.123046875 1987.4208984375 1980.325927734375 1983.9178466796875 1982.693115234375 1976.0911865234375 1967.975341796875 1959.034423828125 1949.815185546875 1940.5169677734375 1940.372802734375 1939.0389404296875 1934.6397705078125 1924.7578125 1917.0316162109375 1909.101806640625 1901.6895751953125 1894.890380859375 1888.6402587890625 1882.822998046875 1876.6925048828125 1870.0445556640625 1862.4449462890625 1855.4898681640625 1848.0245361328125 1841.0228271484375 1830.601806640625 1829 1833.81298828125 1830.54931640625 1816.2177734375 1806 1808.2286376953125 1810.228759765625 1803.052490234375 1798.66650390625 1795.573974609375 1792.3193359375 1788.324951171875 1783.26904296875 1776.96044921875 1769.7518310546875 1757.02880859375 1756.84423828125 1761.29052734375 1765.427978515625 1768.4598388671875 1770.03271484375 1768.7279052734375 1762.5299072265625 1746.553466796875 1749.5308837890625 1749.9073486328125 1745.0196533203125 1751.260498046875 1759.8653564453125 1766.525146484375 1768.7991943359375 1767.72900390625 1765.6541748046875 1762.6507568359375 1758.1883544921875 1807.9757080078125 1808.206298828125 1783.3507080078125 1778.6497802734375 1787.27392578125 1794.2244873046875 1797.158447265625 1805.51953125 1813.417724609375 1819.6671142578125 1822.884765625 1821.5706787109375 1820.5374755859375 1822.7640380859375 1837.281494140625 1846.1885986328125 1850.376220703125 1853.57373046875 1859.5660400390625 1866.444091796875 1871.365966796875 1875.23876953125 1894.2183837890625 1907.12646484375 1906.4285888671875 1903.4149169921875 1921.583251953125 1931.327392578125 1939.8912353515625 1947.8797607421875 1956.2393798828125 1964.634765625 1972.1778564453125 1977.9241943359375 1981.734130859375 1986.3370361328125 1992.2042236328125 1998.0859375 2004.408447265625 2013.4678955078125 2027.5479736328125 2042.593505859375 2037.53759765625 2047.2626953125 -99999 -99999 -99999 -99999 -99999 -99999 -99999 -99999 -99999 -99999 -99999 -99999 -99999 -99999 -99999 -99999 -99999 -99999 -99999 -99999 -99999 -99999 -99999 -99999 -99999 -99999 -99999 -99999 -99999 -99999 -99999 -99999 -99999 -99999 -99999 -99999 -99999 -99999
-99999 -99999 -99999 -99999 -99999 -99999 -99999 -99999 -99999 -99999 -99999 -99999 -99999 2039.403076171875 2029.883056640625 2016.427490234375 2003.626953125 1987.3385009765625 1980.2083740234375 1977.6353759765625 1977.2017822265625 1965.292236328125 1956.8377685546875 1951 1947.0467529296875 1939.0882568359375 1936.0052490234375 1934.21484375 1928.63134765625 1918.416748046875 1911.532470703125 1904.0458984375 1896.5103759765625 1889.6177978515625 1883.5928955078125 1877.73779296875 1871.5706787109375 1865.2991943359375 1858.666015625 1851.6734619140625 1844.5849609375 1838.5020751953125 1832.4495849609375 1829.0029296875 1829.696044921875 1827.021728515625 1815.7838134765625 1806 1806 1804.0849609375 1796.198974609375 1786.5975341796875 1788.6978759765625 1787.2984619140625 1783.1309814453125 1777.7021484375 1772.249267578125 1764.866455078125 1751.705078125 1749.1119384765625 1751.492431640625 1754.5751953125 1756.8621826171875 1757.459228515625 1755.9366455078125 1752.0361328125 1746.975341796875 1745 1745 1745.120361328125 1746.2379150390625 1749.840576171875 1754.1763916015625 1757.6168212890625 1759.111572265625 1759.154296875 1758.2550048828125 1759.341064453125 1846.2882080078125 1823.7989501953125 1796.0167236328125 1780.1763916015625 1779.140380859375 1785.001220703125 1792.4447021484375 1799.24072265625 1805.86767578125 1811.4586181640625 1815.1463623046875 1816.5904541015625 1817.478759765625 1821.4085693359375 1828.20751953125 1840.08984375 1843.853515625 1845.52490234375 1854.4588623046875 1863.933837890625 1871.787841796875 1879.1241455078125 1892.8228759765625 1904 1903.18017578125 1901.5032958984375 1915.04150390625 1925.16943359375 1934.0220947265625 1942.366943359375 1951.16650390625 1959.4029541015625 1966.1756591796875 1971.336181640625 1975.88330078125 1981.343505859375 1987.2725830078125 1993.4190673828125 2002.5333251953125 2017.1536865234375 2032.7860107421875 2038.3387451171875 2020.5972900390625 -99999 -99999 -99999 -99999 -99999 -99999 -99999 -99999 -99999 -99999 -99999 -99999 -99999 -99999 -99999 -99999 -99999 -99999 -99999 -99999 -99999 -99999 -99999 -99999 -99999 -99999 -99999 -99999 -99999 -99999 -99999 -99999 -99999 -99999 -99999 -99999 -99999 -99999 -99999
